-0.305725 0.058192 -6.524970 
-0.304778 0.055697 -6.526010 
-0.305632 0.053550 -6.525590 
-0.305806 0.049443 -6.526520 
-0.304479 0.051763 -6.526810 
-0.307140 0.046975 -6.526100 
-0.305709 0.044313 -6.525770 
-0.304484 0.046678 -6.526850 
-0.307103 0.042112 -6.525740 
-0.304401 0.041982 -6.526110 
-0.305349 0.039036 -6.524610 
-0.306948 0.037452 -6.525800 
-0.307360 0.034561 -6.525450 
-0.305812 0.035331 -6.526800 
-0.305889 0.032122 -6.526320 
-0.306425 0.028517 -6.526370 
-0.307516 0.025955 -6.525690 
-0.305139 0.026280 -6.526520 
-0.306421 0.024177 -6.526620 
-0.307546 0.021674 -6.525640 
-0.306766 0.021103 -6.526240 
-0.306542 0.017781 -6.526570 
-0.307155 0.014927 -6.526400 
-0.307282 0.012708 -6.526530 
-0.308424 0.010228 -6.525700 
-0.306055 0.010168 -6.526710 
-0.307460 0.008285 -6.527120 
-0.307871 0.007214 -6.526020 
-0.307509 0.002509 -6.525460 
-0.306433 0.004923 -6.526360 
-0.306892 -0.002829 -6.524560 
-0.308855 -0.003680 -6.526400 
-0.306258 -0.004000 -6.527130 
-0.307736 -0.006702 -6.526500 
-0.307562 -0.006156 -6.527010 
-0.308719 -0.008416 -6.526520 
-0.306637 -0.008677 -6.526980 
-0.307868 -0.010480 -6.527490 
-0.306571 -0.012460 -6.527940 
-0.307307 -0.014551 -6.527970 
-0.308069 -0.016326 -6.528630 
-0.307913 -0.021801 -6.526850 
-0.310196 -0.032178 -6.511200 
-0.309605 -0.026387 -6.521860 
-0.307832 -0.026323 -6.522110 
-0.307832 -0.026323 -6.522110 
-0.308012 -0.025479 -6.523940 
-0.311099 -0.034717 -6.509590 
-0.311858 -0.037845 -6.508500 
-0.310114 -0.038217 -6.510040 
-0.310568 -0.038850 -6.509570 
-0.309740 -0.039681 -6.510450 
-0.310732 -0.041711 -6.512520 
-0.308896 -0.042820 -6.512710 
-0.310764 -0.043115 -6.514150 
-0.308876 -0.044078 -6.514650 
-0.310774 -0.047040 -6.519230 
-0.310957 -0.049063 -6.519950 
-0.308564 -0.047742 -6.519280 
-0.310474 -0.049516 -6.522170 
-0.310459 -0.053029 -6.520970 
-0.308929 -0.054594 -6.521130 
-0.310265 -0.056376 -6.522740 
-0.308794 -0.058795 -6.521160 
-0.310994 -0.061687 -6.520250 
-0.308974 -0.065511 -6.519760 
-0.309899 -0.063861 -6.519650 
-0.311770 -0.068422 -6.519760 
-0.309225 -0.068534 -6.519010 
-0.310783 -0.070164 -6.519930 
-0.309745 -0.071505 -6.520280 
-0.309818 -0.072958 -6.522020 
-0.309174 -0.074193 -6.520890 
-0.310073 -0.076834 -6.524490 
-0.309413 -0.078810 -6.525430 
-0.310676 -0.080274 -6.526620 
-0.309571 -0.082339 -6.526840 
-0.310753 -0.084312 -6.526730 
-0.309700 -0.086241 -6.526810 
-0.310903 -0.088197 -6.526750 
-0.309779 -0.090456 -6.526930 
-0.310886 -0.092416 -6.526670 
-0.312019 -0.094535 -6.526030 
-0.309829 -0.094552 -6.526630 
-0.310926 -0.096620 -6.526120 
-0.311978 -0.098354 -6.526450 
-0.309922 -0.098088 -6.527120 
-0.310928 -0.100009 -6.527060 
-0.309857 -0.102251 -6.526740 
-0.310520 -0.105221 -6.526940 
-0.312314 -0.105957 -6.526850 
-0.312504 -0.108768 -6.526510 
-0.310680 -0.107862 -6.527070 
-0.310117 -0.113423 -6.526600 
-0.311297 -0.115309 -6.526620 
-0.310429 -0.120006 -6.526140 
-0.312290 -0.120618 -6.526950 
-0.310404 -0.122882 -6.525590 
-0.312365 -0.123147 -6.526480 
-0.311789 -0.127421 -6.524980 
-0.310371 -0.126792 -6.527350 
-0.311346 -0.125045 -6.527020 
-0.312904 -0.129008 -6.525730 
-0.311414 -0.128605 -6.527320 
-0.313300 -0.131315 -6.526210 
-0.312226 -0.133319 -6.526760 
-0.311208 -0.131444 -6.526790 
-0.313299 -0.135057 -6.527020 
-0.311330 -0.135460 -6.526370 
-0.312380 -0.137097 -6.526970 
-0.313407 -0.139188 -6.526550 
-0.311306 -0.139112 -6.527420 
-0.312369 -0.140971 -6.527270 
-0.313442 -0.142958 -6.526720 
-0.311319 -0.143346 -6.526100 
-0.312446 -0.144871 -6.527140 
-0.313532 -0.146833 -6.526740 
-0.311448 -0.147205 -6.526310 
-0.312580 -0.148649 -6.527660 
-0.313674 -0.150773 -6.526670 
-0.311651 -0.150977 -6.526850 
-0.314023 -0.153247 -6.526700 
-0.312304 -0.155356 -6.527270 
-0.311897 -0.156165 -6.527000 
-0.312911 -0.157876 -6.527530 
-0.312012 -0.160097 -6.527180 
-0.313023 -0.161820 -6.527300 
-0.314038 -0.163779 -6.526520 
-0.311969 -0.164021 -6.525890 
-0.314371 -0.175628 -6.508820 
-0.316187 -0.179933 -6.508980 
-0.315336 -0.181760 -6.509390 
-0.314763 -0.183671 -6.510120 
-0.315771 -0.185308 -6.510480 
-0.314765 -0.187083 -6.510810 
-0.315304 -0.186947 -6.517430 
-0.314954 -0.188737 -6.520270 
-0.315968 -0.191292 -6.520520 
-0.315401 -0.191003 -6.521120 
-0.315018 -0.193140 -6.519860 
-0.314491 -0.195687 -6.520220 
-0.315265 -0.197237 -6.521110 
-0.313974 -0.199262 -6.519450 
-0.315015 -0.201048 -6.519180 
-0.316048 -0.202844 -6.519210 
-0.314822 -0.204877 -6.518460 
-0.315846 -0.206631 -6.518090 
-0.316681 -0.211115 -6.518330 
-0.308910 -0.045330 -6.516580 
-0.313423 -0.169903 -6.523760 
-0.312980 -0.167304 -6.524500 
-0.315662 -0.177588 -6.515930 
-0.314727 -0.172558 -6.523000 
-0.305974 0.003709 -6.529490 
-0.309004 -0.029029 -6.520650 
