-0.302029 0.063009 -6.525950 
-0.302464 0.056106 -6.526700 
-0.303172 0.053921 -6.526750 
-0.303243 0.048911 -6.527190 
-0.303351 0.044800 -6.527340 
-0.303333 0.040077 -6.527220 
-0.303364 0.035837 -6.527590 
-0.303537 0.033197 -6.527190 
-0.304109 0.028853 -6.525510 
-0.303201 0.027407 -6.526640 
-0.303477 0.021132 -6.527710 
-0.304448 0.018898 -6.527870 
-0.303456 0.014712 -6.529800 
-0.303932 0.011803 -6.529250 
-0.303932 0.011803 -6.529250 
-0.303932 0.011803 -6.529250 
-0.304210 0.005369 -6.527610 
-0.305889 -0.000267 -6.524340 
-0.304949 -0.001723 -6.527550 
-0.305552 -0.006504 -6.527290 
-0.305596 -0.010451 -6.527810 
-0.305280 -0.014874 -6.526800 
-0.305975 -0.016378 -6.527600 
-0.306399 -0.019695 -6.526300 
-0.305473 -0.021428 -6.526380 
-0.310196 -0.032178 -6.511200 
-0.306362 -0.025242 -6.523290 
-0.307832 -0.026323 -6.522110 
-0.307832 -0.026323 -6.522110 
-0.311099 -0.034717 -6.509590 
-0.311858 -0.037845 -6.508500 
-0.310732 -0.041711 -6.512520 
-0.310764 -0.043115 -6.514150 
-0.308564 -0.047742 -6.519280 
-0.308929 -0.054594 -6.521130 
-0.308794 -0.058795 -6.521160 
-0.308736 -0.061779 -6.519610 
-0.308974 -0.065511 -6.519760 
-0.309899 -0.063861 -6.519650 
-0.309225 -0.068534 -6.519010 
-0.309745 -0.071505 -6.520280 
-0.309818 -0.072958 -6.522020 
-0.309174 -0.074193 -6.520890 
-0.308181 -0.074778 -6.523790 
-0.308181 -0.074778 -6.523790 
-0.308181 -0.074778 -6.523790 
-0.307584 -0.075704 -6.526020 
-0.307584 -0.075704 -6.526020 
-0.307584 -0.075704 -6.526020 
-0.308521 -0.080670 -6.526680 
-0.307475 -0.082319 -6.527270 
-0.308408 -0.084709 -6.526700 
-0.308535 -0.088544 -6.526860 
-0.308777 -0.092542 -6.526630 
-0.308899 -0.096120 -6.527430 
-0.307839 -0.094081 -6.527910 
-0.308725 -0.096544 -6.527100 
-0.307946 -0.101817 -6.528770 
-0.309500 -0.106290 -6.527220 
-0.309500 -0.110064 -6.526940 
-0.309038 -0.111689 -6.526340 
-0.310117 -0.113423 -6.526600 
-0.308822 -0.115440 -6.527800 
-0.309041 -0.117036 -6.527920 
-0.310429 -0.120006 -6.526140 
-0.310404 -0.122882 -6.525590 
-0.310371 -0.126792 -6.527350 
-0.310164 -0.133586 -6.526880 
-0.309181 -0.131056 -6.528730 
-0.309229 -0.134916 -6.529010 
-0.310236 -0.137261 -6.527380 
-0.309260 -0.138962 -6.528680 
-0.310275 -0.140838 -6.528340 
-0.311319 -0.143346 -6.526100 
-0.310350 -0.145360 -6.526140 
-0.311448 -0.147205 -6.526310 
-0.309409 -0.146757 -6.528610 
-0.310357 -0.149255 -6.526170 
-0.310885 -0.157902 -6.528450 
-0.310947 -0.161598 -6.528330 
-0.311969 -0.164021 -6.525890 
-0.315304 -0.186947 -6.517430 
-0.315018 -0.193140 -6.519860 
-0.314491 -0.195687 -6.520220 
-0.315015 -0.201048 -6.519180 
-0.314822 -0.204877 -6.518460 
-0.315846 -0.206631 -6.518090 
-0.313988 -0.222957 -6.526970 
-0.313896 -0.229886 -6.526520 
-0.314920 -0.231829 -6.526070 
-0.313484 -0.231592 -6.528930 
-0.313311 -0.260955 -6.534350 
-0.313173 -0.268888 -6.533390 
-0.315179 -0.279648 -6.527310 
-0.315248 -0.315535 -6.531580 
-0.313464 -0.263621 -6.535460 
-0.313325 -0.265938 -6.534060 
-0.313325 -0.265938 -6.534060 
-0.318168 -0.364686 -6.532000 
-0.313020 -0.264078 -6.534790 
-0.314508 -0.303665 -6.535680 
-0.313441 -0.269841 -6.535230 
-0.308241 -0.285306 -6.555960 
-0.309306 -0.298386 -6.552460 
-0.309417 -0.298332 -6.554000 
-0.314579 -0.305843 -6.535110 
-0.313095 -0.317995 -6.541810 
-0.307139 -0.279147 -6.557590 
-0.305767 -0.279819 -6.561150 
-0.305779 -0.279836 -6.561100 
-0.306592 -0.281578 -6.559220 
-0.305214 -0.282191 -6.564180 
-0.306095 -0.283993 -6.560780 
-0.308786 -0.289190 -6.554590 
-0.307053 -0.297720 -6.562270 
-0.313898 -0.307882 -6.538790 
-0.315662 -0.177588 -6.515930 
-0.307902 -0.287665 -6.556200 
-0.306657 -0.290223 -6.561040 
-0.306756 -0.290537 -6.560970 
-0.308161 -0.289956 -6.552360 
-0.307685 -0.291948 -6.554440 
-0.306908 -0.294031 -6.559750 
-0.315758 -0.311853 -6.529170 
-0.306362 -0.025242 -6.523290 
-0.307760 -0.031325 -6.518800 
-0.317651 -0.354175 -6.528590 
-0.316016 -0.307986 -6.529890 
-0.315965 -0.308078 -6.529850 
-0.315980 -0.311854 -6.529730 
-0.316119 -0.311748 -6.530430 
-0.318162 -0.359019 -6.528040 
