-0.305233 0.065390 -6.524100 
-0.305385 0.062386 -6.524170 
-0.302029 0.063009 -6.525950 
-0.304306 0.060681 -6.524970 
-0.305725 0.058192 -6.524970 
-0.301277 0.059069 -6.527330 
-0.304778 0.055697 -6.526010 
-0.302464 0.056106 -6.526700 
-0.305632 0.053550 -6.525590 
-0.303172 0.053921 -6.526750 
-0.305806 0.049443 -6.526520 
-0.304479 0.051763 -6.526810 
-0.303243 0.048911 -6.527190 
-0.302086 0.047090 -6.527310 
-0.305709 0.044313 -6.525770 
-0.303351 0.044800 -6.527340 
-0.304484 0.046678 -6.526850 
-0.304401 0.041982 -6.526110 
-0.301818 0.042024 -6.526750 
-0.305349 0.039036 -6.524610 
-0.303333 0.040077 -6.527220 
-0.302012 0.037736 -6.526740 
-0.305812 0.035331 -6.526800 
-0.303364 0.035837 -6.527590 
-0.305889 0.032122 -6.526320 
-0.303537 0.033197 -6.527190 
-0.304109 0.028853 -6.525510 
-0.302900 0.031526 -6.526510 
-0.303201 0.027407 -6.526640 
-0.305139 0.026280 -6.526520 
-0.302152 0.025841 -6.527340 
-0.303477 0.021132 -6.527710 
-0.304448 0.018898 -6.527870 
-0.302549 0.019191 -6.527960 
-0.304949 0.015689 -6.527490 
-0.303456 0.014712 -6.529800 
-0.302569 0.014752 -6.527420 
-0.306055 0.010168 -6.526710 
-0.303932 0.011803 -6.529250 
-0.303932 0.011803 -6.529250 
-0.303932 0.011803 -6.529250 
-0.301954 0.010193 -6.527290 
-0.304210 0.005369 -6.527610 
-0.305889 -0.000267 -6.524340 
-0.306892 -0.002829 -6.524560 
-0.302823 -0.001184 -6.527990 
-0.306258 -0.004000 -6.527130 
-0.304949 -0.001723 -6.527550 
-0.305552 -0.006504 -6.527290 
-0.303788 -0.003705 -6.528330 
-0.304334 -0.008737 -6.527110 
-0.305596 -0.010451 -6.527810 
-0.303012 -0.011323 -6.526180 
-0.304826 -0.013221 -6.525450 
-0.305280 -0.014874 -6.526800 
-0.303944 -0.016807 -6.525480 
-0.304008 -0.016422 -6.526610 
-0.304903 -0.017401 -6.526130 
-0.305975 -0.016378 -6.527600 
-0.306399 -0.019695 -6.526300 
-0.304034 -0.018345 -6.527830 
-0.305473 -0.021428 -6.526380 
-0.303899 -0.025324 -6.520650 
-0.306362 -0.025242 -6.523290 
-0.306155 -0.025388 -6.522910 
-0.308463 -0.034871 -6.509950 
-0.306908 -0.033936 -6.511700 
-0.308668 -0.038664 -6.507770 
-0.310114 -0.038217 -6.510040 
-0.309740 -0.039681 -6.510450 
-0.308490 -0.039865 -6.509770 
-0.308754 -0.041258 -6.511490 
-0.306822 -0.041117 -6.509630 
-0.308896 -0.042820 -6.512710 
-0.306752 -0.042270 -6.511940 
-0.308876 -0.044078 -6.514650 
-0.306801 -0.043745 -6.513370 
-0.306848 -0.045032 -6.515230 
-0.306679 -0.046430 -6.516870 
-0.306679 -0.048005 -6.518190 
-0.308143 -0.046411 -6.517460 
-0.304997 -0.047484 -6.517240 
-0.308564 -0.047742 -6.519280 
-0.307365 -0.049123 -6.520120 
-0.304998 -0.048850 -6.519010 
-0.306950 -0.051315 -6.519790 
-0.304872 -0.051342 -6.518570 
-0.305864 -0.052941 -6.520000 
-0.306826 -0.054723 -6.520390 
-0.304814 -0.054632 -6.520060 
-0.307795 -0.056586 -6.520750 
-0.305834 -0.056488 -6.520380 
-0.306852 -0.058992 -6.519900 
-0.306771 -0.061839 -6.518530 
-0.305723 -0.063760 -6.517910 
-0.306815 -0.065462 -6.518880 
-0.307755 -0.063596 -6.519310 
-0.308037 -0.067679 -6.518620 
-0.305197 -0.067781 -6.517420 
-0.307061 -0.070502 -6.518180 
-0.305242 -0.070480 -6.517490 
-0.307953 -0.071607 -6.518970 
-0.305979 -0.072058 -6.518490 
-0.306674 -0.074328 -6.517400 
-0.308610 -0.073352 -6.519770 
-0.305442 -0.076115 -6.519540 
-0.306269 -0.077269 -6.526280 
-0.305685 -0.077645 -6.525650 
-0.306269 -0.077269 -6.526280 
-0.306269 -0.077269 -6.526280 
-0.306380 -0.080745 -6.526450 
-0.305179 -0.082329 -6.525150 
-0.306139 -0.081291 -6.526370 
-0.305591 -0.085701 -6.525250 
-0.306180 -0.083809 -6.526580 
-0.306027 -0.083999 -6.525980 
-0.304315 -0.087859 -6.524190 
-0.305612 -0.090774 -6.523580 
-0.305859 -0.093093 -6.526810 
-0.305197 -0.093294 -6.525080 
-0.305690 -0.094765 -6.526330 
-0.306740 -0.096124 -6.527460 
-0.304229 -0.097149 -6.524210 
-0.307242 -0.097504 -6.527420 
-0.305374 -0.097474 -6.526850 
-0.306177 -0.099373 -6.526900 
-0.306961 -0.100582 -6.527310 
-0.304279 -0.100108 -6.524190 
-0.305094 -0.101677 -6.525140 
-0.305304 -0.103734 -6.523550 
-0.307076 -0.105314 -6.527480 
-0.307476 -0.106374 -6.526610 
-0.306259 -0.108613 -6.525130 
-0.306259 -0.108613 -6.525130 
-0.306259 -0.108613 -6.525130 
-0.306391 -0.110794 -6.525500 
-0.304555 -0.111833 -6.524490 
-0.305784 -0.113000 -6.525970 
-0.304412 -0.114147 -6.524110 
-0.307104 -0.114238 -6.527120 
-0.305730 -0.115454 -6.525200 
-0.306908 -0.117408 -6.526830 
-0.304954 -0.118049 -6.524670 
-0.305842 -0.119678 -6.525490 
-0.306907 -0.121088 -6.526690 
-0.305423 -0.122149 -6.525530 
-0.305387 -0.124370 -6.525580 
-0.307058 -0.125151 -6.527020 
-0.305572 -0.126534 -6.525460 
-0.304438 -0.126656 -6.524790 
-0.306729 -0.128531 -6.526070 
-0.307727 -0.129991 -6.527520 
-0.305780 -0.130228 -6.525860 
-0.305507 -0.132310 -6.524550 
-0.306478 -0.132210 -6.525490 
-0.307227 -0.135214 -6.528250 
-0.306494 -0.134384 -6.525380 
-0.305153 -0.135376 -6.524760 
-0.305199 -0.136359 -6.524650 
-0.305199 -0.136359 -6.524650 
-0.305199 -0.136359 -6.524650 
-0.306227 -0.137643 -6.525580 
-0.306638 -0.136447 -6.525700 
-0.307136 -0.139149 -6.526720 
-0.305662 -0.140152 -6.525150 
-0.305566 -0.141278 -6.524590 
-0.306461 -0.142991 -6.525190 
-0.305408 -0.144817 -6.524340 
-0.306052 -0.143819 -6.525270 
-0.307280 -0.145442 -6.526500 
-0.305874 -0.146280 -6.526090 
-0.307273 -0.147470 -6.527300 
-0.306078 -0.148722 -6.525440 
-0.307086 -0.150242 -6.526610 
-0.305931 -0.152248 -6.525150 
-0.305931 -0.152248 -6.525150 
-0.305874 -0.152221 -6.525150 
-0.307476 -0.153620 -6.526420 
-0.306729 -0.156380 -6.524840 
-0.307795 -0.157683 -6.526140 
-0.306388 -0.158579 -6.524740 
-0.307191 -0.160213 -6.524720 
-0.305727 -0.161112 -6.523100 
-0.307177 -0.162162 -6.524810 
-0.305558 -0.163087 -6.523340 
-0.309861 -0.177253 -6.508080 
-0.310997 -0.178952 -6.507640 
-0.309088 -0.178932 -6.507750 
-0.311457 -0.182066 -6.509810 
-0.308943 -0.182563 -6.508250 
-0.311799 -0.185625 -6.510190 
-0.310432 -0.186730 -6.511120 
-0.309355 -0.186898 -6.511680 
-0.310220 -0.188419 -6.512350 
-0.308259 -0.188500 -6.511920 
-0.310780 -0.190426 -6.511940 
-0.308902 -0.190574 -6.511010 
-0.309865 -0.192056 -6.511850 
-0.310517 -0.193326 -6.513650 
-0.308670 -0.193930 -6.511810 
-0.309092 -0.198054 -6.514010 
-0.308899 -0.199705 -6.516560 
-0.307929 -0.199465 -6.514700 
-0.309270 -0.201660 -6.516920 
-0.307785 -0.200819 -6.515940 
-0.309389 -0.203746 -6.516600 
-0.308153 -0.202683 -6.516430 
-0.310256 -0.205485 -6.516130 
-0.308458 -0.204620 -6.516930 
-0.309224 -0.207150 -6.516090 
-0.307662 -0.207564 -6.516260 
-0.310430 -0.209301 -6.515640 
-0.308468 -0.209310 -6.515740 
-0.310741 -0.212385 -6.516570 
-0.310016 -0.210357 -6.518340 
-0.308455 -0.212534 -6.516250 
-0.310941 -0.213459 -6.515400 
-0.307755 -0.213933 -6.517300 
-0.309992 -0.216380 -6.516810 
-0.309160 -0.214636 -6.517260 
-0.308566 -0.216782 -6.517430 
-0.307260 -0.217774 -6.518460 
-0.308204 -0.219058 -6.520440 
-0.309300 -0.219121 -6.519500 
-0.308392 -0.218695 -6.518030 
-0.307141 -0.218982 -6.521960 
-0.307615 -0.221129 -6.519440 
-0.309453 -0.221121 -6.519780 
-0.306819 -0.220821 -6.522260 
-0.307457 -0.222817 -6.522200 
-0.309571 -0.225126 -6.523440 
-0.307815 -0.223937 -6.522520 
-0.307139 -0.224614 -6.523750 
-0.307833 -0.226265 -6.524150 
-0.308844 -0.226500 -6.524740 
-0.308820 -0.225476 -6.523250 
-0.306234 -0.226221 -6.523550 
-0.306813 -0.228750 -6.525070 
-0.308146 -0.229812 -6.526040 
-0.308833 -0.232379 -6.527740 
-0.308359 -0.231465 -6.527360 
-0.307503 -0.231326 -6.526830 
-0.307005 -0.231565 -6.525100 
-0.307270 -0.234105 -6.525850 
-0.305944 -0.233060 -6.524770 
-0.308544 -0.235228 -6.526770 
-0.307041 -0.236048 -6.525920 
-0.308370 -0.237102 -6.526980 
-0.306218 -0.237688 -6.525440 
-0.308934 -0.238943 -6.525780 
-0.307070 -0.239269 -6.525870 
-0.309021 -0.242760 -6.525000 
-0.307958 -0.240912 -6.525830 
-0.305940 -0.240952 -6.526100 
-0.309897 -0.244668 -6.524090 
-0.306045 -0.244440 -6.526390 
-0.308470 -0.246154 -6.526770 
-0.306755 -0.246199 -6.525480 
-0.306929 -0.246146 -6.526050 
-0.309305 -0.247788 -6.527210 
-0.307567 -0.247847 -6.525890 
-0.306012 -0.247767 -6.525640 
-0.308512 -0.249553 -6.525640 
-0.309372 -0.251242 -6.525640 
-0.307534 -0.251212 -6.524870 
-0.308511 -0.252822 -6.525810 
-0.306688 -0.252800 -6.525720 
-0.309350 -0.254514 -6.525150 
-0.306561 -0.256140 -6.524380 
-0.308351 -0.256147 -6.524710 
-0.307567 -0.254466 -6.525300 
-0.309462 -0.257699 -6.524830 
-0.307658 -0.257671 -6.524930 
-0.308470 -0.259345 -6.524390 
-0.306673 -0.259308 -6.524570 
-0.307407 -0.260971 -6.524070 
-0.308242 -0.262547 -6.524500 
-0.306425 -0.262560 -6.524460 
-0.309211 -0.264128 -6.525150 
-0.309954 -0.265765 -6.524930 
-0.309070 -0.264121 -6.525060 
-0.307304 -0.264168 -6.524570 
-0.308175 -0.265754 -6.524700 
-0.308187 -0.265774 -6.524670 
-0.309076 -0.267315 -6.525230 
-0.307210 -0.267381 -6.524030 
-0.307267 -0.267519 -6.523970 
-0.309777 -0.268974 -6.524800 
-0.308049 -0.268977 -6.524220 
-0.309132 -0.270499 -6.525360 
-0.307301 -0.270527 -6.524420 
-0.306730 -0.270507 -6.523830 
-0.306730 -0.270507 -6.523830 
-0.306730 -0.270507 -6.523830 
-0.307433 -0.271246 -6.523960 
-0.308914 -0.272866 -6.525330 
-0.308121 -0.272168 -6.524080 
-0.309214 -0.273704 -6.525060 
-0.307205 -0.273778 -6.523520 
-0.308051 -0.275428 -6.523370 
-0.307572 -0.274944 -6.524650 
-0.308111 -0.277080 -6.522660 
-0.309722 -0.277937 -6.524160 
-0.308318 -0.279005 -6.522740 
-0.309639 -0.279926 -6.523620 
-0.310001 -0.280807 -6.525280 
-0.309550 -0.279953 -6.524570 
-0.308211 -0.280997 -6.522140 
-0.309454 -0.281834 -6.523970 
-0.309144 -0.281837 -6.525460 
-0.307395 -0.281927 -6.521970 
-0.309786 -0.285020 -6.522480 
-0.310135 -0.283501 -6.522980 
-0.307737 -0.285062 -6.522350 
-0.308602 -0.283438 -6.523340 
-0.308687 -0.284252 -6.524800 
-0.310256 -0.285821 -6.523120 
-0.308615 -0.286826 -6.521580 
-0.307713 -0.285240 -6.521060 
-0.311252 -0.288600 -6.518930 
-0.310586 -0.288305 -6.523340 
-0.309331 -0.288510 -6.520500 
-0.307812 -0.288457 -6.520580 
-0.311022 -0.289975 -6.521520 
-0.308959 -0.290122 -6.521880 
-0.308773 -0.290074 -6.520690 
-0.309783 -0.291640 -6.521350 
-0.307982 -0.291672 -6.519960 
-0.308945 -0.293265 -6.520310 
-0.310017 -0.293324 -6.520570 
-0.310671 -0.292693 -6.520610 
-0.310349 -0.293930 -6.520490 
-0.308853 -0.294284 -6.520420 
-0.308850 -0.294295 -6.520390 
-0.309484 -0.294825 -6.521670 
-0.310581 -0.294979 -6.519240 
-0.309170 -0.294752 -6.520330 
-0.310014 -0.295415 -6.520910 
-0.307735 -0.295109 -6.520410 
-0.311524 -0.296570 -6.518190 
-0.310906 -0.296463 -6.520120 
-0.309967 -0.296500 -6.519920 
-0.308997 -0.297552 -6.520180 
-0.309081 -0.296604 -6.522050 
-0.309836 -0.299139 -6.521000 
-0.310281 -0.299597 -6.519220 
-0.308116 -0.299130 -6.519660 
-0.310966 -0.301169 -6.519890 
-0.309080 -0.300684 -6.520100 
-0.309643 -0.300979 -6.522080 
-0.309649 -0.302955 -6.520240 
-0.309750 -0.302932 -6.518530 
-0.308169 -0.302259 -6.519650 
-0.308110 -0.302886 -6.519270 
-0.311214 -0.305424 -6.520100 
-0.310150 -0.303889 -6.519130 
-0.309504 -0.305419 -6.519860 
-0.310040 -0.303931 -6.521340 
-0.308856 -0.303816 -6.520460 
-0.308109 -0.305398 -6.519740 
-0.310502 -0.306979 -6.519970 
-0.308829 -0.306993 -6.519150 
-0.309795 -0.308537 -6.520340 
-0.309286 -0.308699 -6.520200 
-0.310542 -0.307951 -6.519440 
-0.310542 -0.307951 -6.519440 
-0.308168 -0.308527 -6.519970 
-0.310558 -0.310132 -6.519960 
-0.310862 -0.310108 -6.519750 
-0.310899 -0.310142 -6.519550 
-0.309102 -0.310098 -6.520540 
-0.309929 -0.311685 -6.520590 
-0.308369 -0.311668 -6.520560 
-0.310614 -0.313274 -6.520210 
-0.309137 -0.313248 -6.520690 
-0.309961 -0.314838 -6.520320 
-0.308368 -0.314821 -6.520690 
-0.309124 -0.316403 -6.520070 
-0.310178 -0.317976 -6.520640 
-0.308324 -0.317977 -6.520400 
-0.309353 -0.319544 -6.520870 
-0.308383 -0.321125 -6.520420 
-0.310661 -0.322375 -6.524570 
-0.309314 -0.322712 -6.520710 
-0.309514 -0.324834 -6.519430 
-0.310457 -0.324883 -6.525140 
-0.310045 -0.324822 -6.523080 
-0.310129 -0.323768 -6.519610 
-0.310067 -0.323748 -6.519400 
-0.310582 -0.329633 -6.524720 
-0.309242 -0.330722 -6.521960 
-0.308800 -0.329591 -6.519970 
-0.309592 -0.331188 -6.521600 
-0.311105 -0.332762 -6.523120 
-0.310775 -0.337092 -6.512300 
-0.309178 -0.337038 -6.517490 
-0.309702 -0.337081 -6.519890 
-0.309045 -0.338626 -6.519880 
-0.311096 -0.340115 -6.519450 
-0.310052 -0.341279 -6.519350 
-0.309188 -0.340507 -6.520040 
-0.310008 -0.342102 -6.520180 
-0.311055 -0.344151 -6.522990 
-0.308370 -0.344101 -6.520530 
-0.310533 -0.345631 -6.519560 
-0.308994 -0.345652 -6.519750 
-0.309982 -0.347249 -6.520770 
-0.311464 -0.347221 -6.520500 
-0.310945 -0.348825 -6.521080 
-0.311352 -0.350565 -6.519880 
-0.308987 -0.352446 -6.522160 
-0.309642 -0.354694 -6.521740 
-0.302207 0.066415 -6.523290 
-0.303395 -0.018417 -6.529490 
-0.303393 -0.018438 -6.529450 
-0.305219 -0.024231 -6.522210 
-0.305213 -0.024088 -6.522510 
-0.308910 -0.045330 -6.516580 
-0.304968 -0.079516 -6.525390 
-0.309074 -0.277894 -6.523990 
-0.309595 -0.293956 -6.522950 
-0.311517 -0.354638 -6.521640 
-0.309716 -0.356183 -6.520860 
-0.310361 -0.356314 -6.518470 
-0.310806 -0.358590 -6.518690 
-0.311997 -0.358663 -6.517770 
-0.309910 -0.358445 -6.518940 
-0.314062 -0.361840 -6.498130 
-0.310395 -0.365435 -6.523580 
-0.306814 0.003957 -6.512870 
-0.308956 -0.186006 -6.508260 
-0.308568 -0.196749 -6.512310 
-0.310373 -0.197565 -6.516800 
-0.308258 -0.227924 -6.525800 
-0.308955 -0.273863 -6.525450 
-0.310367 -0.319636 -6.523680 
-0.310475 -0.336378 -6.524520 
-0.306435 -0.163844 -6.523710 
-0.308588 -0.165264 -6.522080 
-0.312481 -0.179955 -6.508420 
-0.310366 -0.323751 -6.523150 
-0.310141 -0.327997 -6.522690 
-0.309046 -0.329619 -6.523350 
-0.313196 -0.330604 -6.511810 
-0.313196 -0.330604 -6.511800 
-0.310275 -0.331179 -6.522690 
-0.302587 0.007126 -6.525820 
-0.307841 -0.163824 -6.525030 
-0.309310 -0.169767 -6.519410 
-0.310183 -0.176368 -6.504640 
-0.311267 -0.184190 -6.507860 
-0.311062 -0.194613 -6.515860 
-0.309914 -0.195615 -6.512700 
-0.309276 -0.326417 -6.522440 
-0.309067 -0.335473 -6.519720 
-0.311116 -0.338202 -6.522640 
-0.307716 -0.166895 -6.521070 
-0.308734 -0.327970 -6.520730 
-0.311855 -0.176660 -6.503070 
-0.309848 -0.342643 -6.524240 
-0.321382 -0.365879 -6.466550 
-0.307648 -0.034378 -6.512330 
-0.295151 -0.353448 -6.590310 
-0.352081 -0.359152 -6.332670 
-0.350191 -0.359316 -6.330400 
-0.371069 -0.369476 -6.246190 
-0.306362 -0.025242 -6.523290 
-0.307760 -0.031325 -6.518800 
-0.308861 -0.195599 -6.513680 
-0.308486 -0.333884 -6.519900 
-0.304909 -0.364918 -6.538730 
-0.350080 -0.362298 -6.335370 
