ply
format ascii 1.0
element vertex 751
property float x
property float y
property float z
property uchar red
property uchar green
property uchar blue
property uchar alpha
end_header
-0.13330497427 0.0260592364025 -6.53235859061 182 177 167 255 
-0.130509419556 0.0260592364025 -6.53397919482 168 163 154 255 
-0.127713864842 0.0260592364025 -6.53564419328 151 143 139 255 
-0.124918310128 0.0260592364025 -6.53735358597 142 134 130 255 
-0.122122755414 0.0260592364025 -6.53910737289 140 136 132 255 
-0.1193272007 0.0260592364025 -6.54090555406 202 195 184 255 
-0.116531645986 0.0260592364025 -6.54274812946 185 182 175 255 
-0.113736091272 0.0260592364025 -6.5446350991 181 181 176 255 
-0.110940536558 0.0260592364025 -6.54656646298 200 197 188 255 
-0.108144981844 0.0260592364025 -6.5485422211 216 206 189 255 
-0.105349427131 0.0260592364025 -6.55056237345 215 204 187 255 
-0.102553872417 0.0260592364025 -6.55262692005 212 202 187 255 
-0.0997583177027 0.0260592364025 -6.55473586088 206 198 186 255 
-0.0969627629887 0.0260592364025 -6.55688919595 188 185 178 255 
-0.0941672082748 0.0260592364025 -6.55908692525 196 192 182 255 
-0.0913716535609 0.0260592364025 -6.5613290488 211 204 189 255 
-0.088576098847 0.0260592364025 -6.56361556658 213 200 181 255 
-0.0857805441331 0.0260592364025 -6.5659464786 209 192 168 255 
-0.0829849894191 0.0260592364025 -6.56832178486 206 187 164 255 
-0.0801894347052 0.0260592364025 -6.57074148536 204 185 162 255 
-0.0773938799913 0.0260592364025 -6.57320558009 193 174 145 255 
-0.0745983252774 0.0260592364025 -6.57571406906 195 176 146 255 
-0.0718027705635 0.0260592364025 -6.57826695227 176 154 133 255 
-0.0690072158495 0.0260592364025 -6.58086422972 164 143 124 255 
-0.0662116611356 0.0260592364025 -6.58350590141 192 180 156 255 
-0.0634161064217 0.0260592364025 -6.58619196733 232 218 186 255 
-0.0606205517078 0.0260592364025 -6.58892242749 220 204 180 255 
-0.0578249969938 0.0260592364025 -6.59169728189 180 166 149 255 
-0.0550294422799 0.0260592364025 -6.59451653053 177 161 141 255 
-0.052233887566 0.0260592364025 -6.5973801734 171 148 121 255 
-0.0494383328521 0.0260592364025 -6.60028821052 181 156 126 255 
-0.0466427781382 0.0260592364025 -6.60324064187 175 154 130 255 
-0.0438472234242 0.0260592364025 -6.60623746746 221 207 180 255 
-0.0410516687103 0.0260592364025 -6.60927868728 230 215 190 255 
-0.0382561139964 0.0260592364025 -6.61236430135 229 212 184 255 
-0.0354605592825 0.0260592364025 -6.61549430965 247 234 207 255 
-0.0326650045686 0.0260592364025 -6.61866871219 250 238 213 255 
-0.0298694498546 0.0260592364025 -6.62188750897 249 235 205 255 
-0.0270738951407 0.0260592364025 -6.62515069998 250 235 201 255 
-0.0242783404268 0.0260592364025 -6.62845828524 222 203 177 255 
-0.0214827857129 0.0260592364025 -6.63181026473 229 214 185 255 
-0.018687230999 0.0260592364025 -6.63520663846 236 224 196 255 
-0.015891676285 0.0260592364025 -6.63864740643 240 229 201 255 
-0.0130961215711 0.0260592364025 -6.64213256863 248 238 212 255 
-0.0103005668572 0.0260592364025 -6.64566212508 238 228 201 255 
-0.00750501214327 0.0260592364025 -6.64923607576 246 235 207 255 
-0.00470945742934 0.0260592364025 -6.65285442068 249 236 208 255 
-0.00191390271542 0.0260592364025 -6.65651715984 250 233 205 255 
0.000881651998498 0.0260592364025 -6.66022429323 249 232 201 255 
-0.415656000376 0.0296262564675 -6.59740135445 79 95 109 255 
-0.412860445662 0.0296262564675 -6.59453626188 79 95 109 255 
-0.410064890948 0.0296262564675 -6.59171556355 79 95 109 255 
-0.407269336234 0.0296262564675 -6.58893925946 79 95 109 255 
-0.40447378152 0.0296262564675 -6.5862073496 79 95 109 255 
-0.401678226806 0.0296262564675 -6.58351983398 70 89 106 255 
-0.398882672092 0.0296262564675 -6.58087671261 70 89 106 255 
-0.396087117378 0.0296262564675 -6.57827798546 70 89 106 255 
-0.393291562664 0.0296262564675 -6.57572365256 69 88 106 255 
-0.39049600795 0.0296262564675 -6.5732137139 69 88 106 255 
-0.387700453237 0.0296262564675 -6.57074816947 71 87 103 255 
-0.384904898523 0.0296262564675 -6.56832701928 75 90 107 255 
-0.382109343809 0.0296262564675 -6.56595026333 120 132 147 255 
-0.379313789095 0.0296262564675 -6.56361790161 153 158 161 255 
-0.376518234381 0.0296262564675 -6.56132993414 152 151 144 255 
-0.373722679667 0.0296262564675 -6.5590863609 151 149 140 255 
-0.370927124953 0.0296262564675 -6.5568871819 148 146 139 255 
-0.368131570239 0.0296262564675 -6.55473239714 119 118 113 255 
-0.365336015525 0.0296262564675 -6.55262200661 73 83 91 255 
-0.362540460811 0.0296262564675 -6.55055601033 68 80 90 255 
-0.359744906097 0.0296262564675 -6.54853440828 74 85 96 255 
-0.356949351383 0.0296262564675 -6.54655720047 67 86 103 255 
-0.354153796669 0.0296262564675 -6.5446243869 75 89 102 255 
-0.351358241956 0.0296262564675 -6.54273596756 84 90 96 255 
-0.348562687242 0.0296262564675 -6.54089194247 89 92 98 255 
-0.345767132528 0.0296262564675 -6.53909231161 111 117 126 255 
-0.342971577814 0.0296262564675 -6.53733707499 146 150 153 255 
-0.3401760231 0.0296262564675 -6.5356262326 143 145 147 255 
-0.337380468386 0.0296262564675 -6.53395978446 130 131 133 255 
-0.334584913672 0.0296262564675 -6.53233773055 151 152 152 255 
-0.331789358958 0.0296262564675 -6.53076007088 184 183 182 255 
-0.328993804244 0.0296262564675 -6.52922680545 184 183 182 255 
-0.32619824953 0.0296262564675 -6.52773793426 175 174 171 255 
-0.323402694816 0.0296262564675 -6.5262934573 177 177 175 255 
-0.320607140102 0.0296262564675 -6.52489337458 176 184 191 255 
-0.317811585389 0.0296262564675 -6.5235376861 172 178 184 255 
-0.315016030675 0.0296262564675 -6.52222639186 181 183 183 255 
-0.312220475961 0.0296262564675 -6.52095949186 179 181 180 255 
-0.309424921247 0.0296262564675 -6.51973698609 175 176 174 255 
-0.306629366533 0.0296262564675 -6.51855887456 171 172 168 255 
-0.303833811819 0.0296262564675 -6.51742515727 156 161 165 255 
-0.301038257105 0.0296262564675 -6.51633583422 144 150 154 255 
-0.298242702391 0.0296262564675 -6.51529090541 144 150 155 255 
-0.295447147677 0.0296262564675 -6.51429037083 150 156 162 255 
-0.292651592963 0.0296262564675 -6.51333423049 184 185 184 255 
-0.289856038249 0.0296262564675 -6.51242248439 184 185 184 255 
-0.287060483535 0.0296262564675 -6.51155513253 197 196 190 255 
-0.284264928821 0.0296262564675 -6.5107321749 188 185 180 255 
-0.281469374108 0.0296262564675 -6.50995361151 178 175 169 255 
-0.278673819394 0.0296262564675 -6.50921944237 167 165 162 255 
-0.27587826468 0.0296262564675 -6.50852966745 171 169 165 255 
-0.273082709966 0.0296262564675 -6.50788428678 171 169 165 255 
-0.270287155252 0.0296262564675 -6.50728330035 117 123 127 255 
-0.267491600538 0.0296262564675 -6.50672670815 72 81 92 255 
-0.264696045824 0.0296262564675 -6.50621451019 75 82 91 255 
-0.26190049111 0.0296262564675 -6.50574670647 75 82 91 255 
-0.259104936396 0.0296262564675 -6.50532329698 103 105 109 255 
-0.256309381682 0.0296262564675 -6.50494428174 103 105 109 255 
-0.253513826968 0.0296262564675 -6.50460966073 118 120 123 255 
-0.250718272254 0.0296262564675 -6.50431943396 174 174 171 255 
-0.24792271754 0.0296262564675 -6.50407360143 177 175 171 255 
-0.245127162827 0.0296262564675 -6.50387216313 179 177 173 255 
-0.242331608113 0.0296262564675 -6.50371511907 180 177 169 255 
-0.239536053399 0.0296262564675 -6.50360246926 166 160 151 255 
-0.236740498685 0.0296262564675 -6.50353421368 110 112 112 255 
-0.233944943971 0.0296262564675 -6.50351035233 94 98 103 255 
-0.231149389257 0.0296262564675 -6.50353088523 102 102 105 255 
-0.228353834543 0.0296262564675 -6.50359581236 110 110 113 255 
-0.225558279829 0.0296262564675 -6.50370513373 130 130 131 255 
-0.222762725115 0.0296262564675 -6.50385884934 142 143 142 255 
-0.219967170401 0.0296262564675 -6.50405695919 168 168 166 255 
-0.217171615687 0.0296262564675 -6.50429946327 160 162 164 255 
-0.214376060973 0.0296262564675 -6.50458636159 157 161 165 255 
-0.21158050626 0.0296262564675 -6.50491765415 163 167 170 255 
-0.208784951546 0.0296262564675 -6.50529334095 195 195 192 255 
-0.205989396832 0.0296262564675 -6.50571342199 213 209 198 255 
-0.203193842118 0.0296262564675 -6.50617789726 212 208 196 255 
-0.200398287404 0.0296262564675 -6.50668676678 211 207 195 255 
-0.19760273269 0.0296262564675 -6.50724003052 204 199 188 255 
-0.194807177976 0.0296262564675 -6.50783768851 199 194 182 255 
-0.192011623262 0.0296262564675 -6.50847974074 175 175 173 255 
-0.189216068548 0.0296262564675 -6.5091661872 165 168 168 255 
-0.186420513834 0.0296262564675 -6.5098970279 181 183 182 255 
-0.18362495912 0.0296262564675 -6.51067226284 200 200 194 255 
-0.180829404406 0.0296262564675 -6.51149189202 222 218 207 255 
-0.178033849692 0.0296262564675 -6.51235591544 222 217 205 255 
-0.175238294979 0.0296262564675 -6.51326433309 210 203 190 255 
-0.172442740265 0.0296262564675 -6.51421714498 200 191 177 255 
-0.169647185551 0.0296262564675 -6.51521435111 197 188 175 255 
-0.166851630837 0.0296262564675 -6.51625595148 195 187 174 255 
-0.164056076123 0.0296262564675 -6.51734194608 177 167 155 255 
-0.161260521409 0.0296262564675 -6.51847233492 157 153 145 255 
-0.158464966695 0.0296262564675 -6.519647118 151 147 141 255 
-0.155669411981 0.0296262564675 -6.52086629532 143 138 133 255 
-0.152873857267 0.0296262564675 -6.52212986688 134 130 127 255 
-0.150078302553 0.0296262564675 -6.52343783267 165 163 157 255 
-0.147282747839 0.0296262564675 -6.5247901927 206 198 185 255 
-0.144487193125 0.0296262564675 -6.52618694697 205 195 181 255 
-0.141691638411 0.0296262564675 -6.52762809548 203 194 180 255 
-0.138896083698 0.0296262564675 -6.52911363823 182 171 157 255 
-0.136100528984 0.0296262564675 -6.53064357521 179 169 152 255 
-0.13330497427 0.0296262564675 -6.53221790643 178 172 157 255 
-0.130509419556 0.0296262564675 -6.53383663189 172 167 156 255 
-0.127713864842 0.0296262564675 -6.53549975159 147 139 133 255 
-0.124918310128 0.0296262564675 -6.53720726553 134 127 123 255 
-0.122122755414 0.0296262564675 -6.5389591737 153 149 142 255 
-0.1193272007 0.0296262564675 -6.54075547611 197 190 178 255 
-0.116531645986 0.0296262564675 -6.54259617276 191 186 177 255 
-0.113736091272 0.0296262564675 -6.54448126365 184 183 178 255 
-0.110940536558 0.0296262564675 -6.54641074877 200 197 189 255 
-0.108144981844 0.0296262564675 -6.54838462813 214 205 190 255 
-0.105349427131 0.0296262564675 -6.55040290173 211 199 181 255 
-0.102553872417 0.0296262564675 -6.55246556957 209 198 180 255 
-0.0997583177027 0.0296262564675 -6.55457263165 203 193 179 255 
-0.0969627629887 0.0296262564675 -6.55672408796 190 185 178 255 
-0.0941672082748 0.0296262564675 -6.55891993851 202 198 186 255 
-0.0913716535609 0.0296262564675 -6.5611601833 212 203 187 255 
-0.088576098847 0.0296262564675 -6.56344482233 217 206 187 255 
-0.0857805441331 0.0296262564675 -6.5657738556 219 203 180 255 
-0.0829849894191 0.0296262564675 -6.5681472831 202 183 161 255 
-0.0801894347052 0.0296262564675 -6.57056510484 194 176 154 255 
-0.0773938799913 0.0296262564675 -6.57302732082 185 168 143 255 
-0.0745983252774 0.0296262564675 -6.57553393104 185 168 143 255 
-0.0718027705635 0.0296262564675 -6.5780849355 183 160 138 255 
-0.0690072158495 0.0296262564675 -6.58068033419 159 140 122 255 
-0.0662116611356 0.0296262564675 -6.58332012712 175 158 136 255 
-0.0634161064217 0.0296262564675 -6.58600431429 237 216 180 255 
-0.0606205517078 0.0296262564675 -6.5887328957 236 215 182 255 
-0.0578249969938 0.0296262564675 -6.59150587134 189 173 153 255 
-0.0550294422799 0.0296262564675 -6.59432324123 173 157 137 255 
-0.052233887566 0.0296262564675 -6.59718500535 169 145 118 255 
-0.0494383328521 0.0296262564675 -6.6000911637 185 158 126 255 
-0.0466427781382 0.0296262564675 -6.6030417163 189 170 144 255 
-0.0438472234242 0.0296262564675 -6.60603666314 203 187 157 255 
-0.0410516687103 0.0296262564675 -6.60907600421 233 218 187 255 
-0.0382561139964 0.0296262564675 -6.61215973952 227 209 183 255 
-0.0354605592825 0.0296262564675 -6.61528786907 246 232 206 255 
-0.0326650045686 0.0296262564675 -6.61846039285 248 236 211 255 
-0.0298694498546 0.0296262564675 -6.62167731088 250 237 209 255 
-0.0270738951407 0.0296262564675 -6.62493862314 246 230 193 255 
-0.0242783404268 0.0296262564675 -6.62824432964 230 214 183 255 
-0.0214827857129 0.0296262564675 -6.63159443037 231 218 188 255 
-0.018687230999 0.0296262564675 -6.63498892535 235 222 192 255 
-0.015891676285 0.0296262564675 -6.63842781456 243 232 203 255 
-0.0130961215711 0.0296262564675 -6.64191109802 247 237 209 255 
-0.0103005668572 0.0296262564675 -6.6454387757 240 230 202 255 
-0.00750501214327 0.0296262564675 -6.64901084763 246 232 202 255 
-0.00470945742934 0.0296262564675 -6.6526273138 248 231 201 255 
-0.00191390271542 0.0296262564675 -6.6562881742 252 234 206 255 
0.000881651998498 0.0296262564675 -6.65999342884 252 233 201 255 
-0.415656000376 0.0331932765325 -6.59745220582 81 94 108 255 
-0.412860445662 0.0331932765325 -6.59458523449 81 94 108 255 
-0.410064890948 0.0331932765325 -6.59176265741 81 94 108 255 
-0.407269336234 0.0331932765325 -6.58898447456 81 94 108 255 
-0.40447378152 0.0331932765325 -6.58625068595 81 94 108 255 
-0.401678226806 0.0331932765325 -6.58356129158 81 94 108 255 
-0.398882672092 0.0331932765325 -6.58091629145 79 93 107 255 
-0.396087117378 0.0331932765325 -6.57831568555 79 93 107 255 
-0.393291562664 0.0331932765325 -6.5757594739 87 97 108 255 
-0.39049600795 0.0331932765325 -6.57324765648 77 92 106 255 
-0.387700453237 0.0331932765325 -6.57078023329 77 92 106 255 
-0.384904898523 0.0331932765325 -6.56835720435 81 95 110 255 
-0.382109343809 0.0331932765325 -6.56597856964 114 122 135 255 
-0.379313789095 0.0331932765325 -6.56364432918 153 158 162 255 
-0.376518234381 0.0331932765325 -6.56135448295 148 147 141 255 
-0.373722679667 0.0331932765325 -6.55910903095 151 149 141 255 
-0.370927124953 0.0331932765325 -6.5569079732 146 144 137 255 
-0.368131570239 0.0331932765325 -6.55475130968 98 99 100 255 
-0.365336015525 0.0331932765325 -6.5526390404 75 82 89 255 
-0.362540460811 0.0331932765325 -6.55057116536 71 79 88 255 
-0.359744906097 0.0331932765325 -6.54854768456 86 90 95 255 
-0.356949351383 0.0331932765325 -6.546568598 95 98 102 255 
-0.354153796669 0.0331932765325 -6.54463390567 95 97 101 255 
-0.351358241956 0.0331932765325 -6.54274360758 90 92 96 255 
-0.348562687242 0.0331932765325 -6.54089770373 84 87 92 255 
-0.345767132528 0.0331932765325 -6.53909619411 108 114 121 255 
-0.342971577814 0.0331932765325 -6.53733907874 131 139 144 255 
-0.3401760231 0.0331932765325 -6.5356263576 137 142 147 255 
-0.337380468386 0.0331932765325 -6.5339580307 126 129 128 255 
-0.334584913672 0.0331932765325 -6.53233409804 151 154 155 255 
-0.331789358958 0.0331932765325 -6.53075455962 182 182 181 255 
-0.328993804244 0.0331932765325 -6.52921941543 177 176 174 255 
-0.32619824953 0.0331932765325 -6.52772866548 175 174 171 255 
-0.323402694816 0.0331932765325 -6.52628230977 174 175 173 255 
-0.320607140102 0.0331932765325 -6.5248803483 171 179 186 255 
-0.317811585389 0.0331932765325 -6.52352278107 172 180 187 255 
-0.315016030675 0.0331932765325 -6.52220960807 175 179 182 255 
-0.312220475961 0.0331932765325 -6.52094082931 178 180 179 255 
-0.309424921247 0.0331932765325 -6.51971644479 177 179 175 255 
-0.306629366533 0.0331932765325 -6.51853645451 175 176 172 255 
-0.303833811819 0.0331932765325 -6.51740085846 154 163 170 255 
-0.301038257105 0.0331932765325 -6.51630965666 146 154 161 255 
-0.298242702391 0.0331932765325 -6.51526284909 145 151 158 255 
-0.295447147677 0.0331932765325 -6.51426043576 151 157 164 255 
-0.292651592963 0.0331932765325 -6.51330241666 163 168 172 255 
-0.289856038249 0.0331932765325 -6.51238879181 186 186 185 255 
-0.287060483535 0.0331932765325 -6.51151956119 180 178 175 255 
-0.284264928821 0.0331932765325 -6.51069472481 191 188 181 255 
-0.281469374108 0.0331932765325 -6.50991428267 174 171 166 255 
-0.278673819394 0.0331932765325 -6.50917823477 164 160 157 255 
-0.27587826468 0.0331932765325 -6.5084865811 164 161 158 255 
-0.273082709966 0.0331932765325 -6.50783932167 170 167 163 255 
-0.270287155252 0.0331932765325 -6.50723645648 74 92 108 255 
-0.267491600538 0.0331932765325 -6.50667798553 74 92 108 255 
-0.264696045824 0.0331932765325 -6.50616390882 82 95 108 255 
-0.26190049111 0.0331932765325 -6.50569422634 95 98 103 255 
-0.259104936396 0.0331932765325 -6.5052689381 95 98 103 255 
-0.256309381682 0.0331932765325 -6.5048880441 97 100 104 255 
-0.253513826968 0.0331932765325 -6.50455154434 111 113 116 255 
-0.250718272254 0.0331932765325 -6.50425943881 164 160 156 255 
-0.24792271754 0.0331932765325 -6.50401172753 161 156 151 255 
-0.245127162827 0.0331932765325 -6.50380841048 166 163 158 255 
-0.242331608113 0.0331932765325 -6.50364948767 170 166 159 255 
-0.239536053399 0.0331932765325 -6.50353495909 170 165 155 255 
-0.236740498685 0.0331932765325 -6.50346482476 107 109 109 255 
-0.233944943971 0.0331932765325 -6.50343908466 91 94 100 255 
-0.231149389257 0.0331932765325 -6.5034577388 99 100 104 255 
-0.228353834543 0.0331932765325 -6.50352078718 110 111 113 255 
-0.225558279829 0.0331932765325 -6.5036282298 110 111 113 255 
-0.222762725115 0.0331932765325 -6.50378006665 129 130 130 255 
-0.219967170401 0.0331932765325 -6.50397629774 166 164 160 255 
-0.217171615687 0.0331932765325 -6.50421692307 161 162 161 255 
-0.214376060973 0.0331932765325 -6.50450194264 158 163 167 255 
-0.21158050626 0.0331932765325 -6.50483135645 162 166 169 255 
-0.208784951546 0.0331932765325 -6.50520516449 184 186 183 255 
-0.205989396832 0.0331932765325 -6.50562336677 201 199 191 255 
-0.203193842118 0.0331932765325 -6.50608596329 212 208 195 255 
-0.200398287404 0.0331932765325 -6.50659295405 212 207 195 255 
-0.19760273269 0.0331932765325 -6.50714433905 183 172 160 255 
-0.194807177976 0.0331932765325 -6.50774011828 191 182 170 255 
-0.192011623262 0.0331932765325 -6.50838029175 185 181 174 255 
-0.189216068548 0.0331932765325 -6.50906485946 168 169 169 255 
-0.186420513834 0.0331932765325 -6.50979382141 176 179 178 255 
-0.18362495912 0.0331932765325 -6.51056717759 200 199 194 255 
-0.180829404406 0.0331932765325 -6.51138492801 217 214 203 255 
-0.178033849692 0.0331932765325 -6.51224707267 222 217 204 255 
-0.175238294979 0.0331932765325 -6.51315361157 208 200 186 255 
-0.172442740265 0.0331932765325 -6.51410454471 194 184 169 255 
-0.169647185551 0.0331932765325 -6.51509987208 192 182 168 255 
-0.166851630837 0.0331932765325 -6.5161395937 179 167 155 255 
-0.164056076123 0.0331932765325 -6.51722370955 175 165 153 255 
-0.161260521409 0.0331932765325 -6.51835221963 172 164 154 255 
-0.158464966695 0.0331932765325 -6.51952512396 169 166 159 255 
-0.155669411981 0.0331932765325 -6.52074242252 131 127 125 255 
-0.152873857267 0.0331932765325 -6.52200411533 131 127 125 255 
-0.150078302553 0.0331932765325 -6.52331020237 152 149 144 255 
-0.147282747839 0.0331932765325 -6.52466068364 193 186 175 255 
-0.144487193125 0.0331932765325 -6.52605555916 205 195 181 255 
-0.141691638411 0.0331932765325 -6.52749482891 201 191 177 255 
-0.138896083698 0.0331932765325 -6.5289784929 189 178 164 255 
-0.136100528984 0.0331932765325 -6.53050655113 174 164 147 255 
-0.13330497427 0.0331932765325 -6.5320790036 194 189 175 255 
-0.130509419556 0.0331932765325 -6.5336958503 181 176 167 255 
-0.127713864842 0.0331932765325 -6.53535709125 148 141 135 255 
-0.124918310128 0.0331932765325 -6.53706272643 130 124 120 255 
-0.122122755414 0.0331932765325 -6.53881275585 153 151 144 255 
-0.1193272007 0.0331932765325 -6.5406071795 194 187 174 255 
-0.116531645986 0.0331932765325 -6.5424459974 189 183 173 255 
-0.113736091272 0.0331932765325 -6.54432920953 177 177 173 255 
-0.110940536558 0.0331932765325 -6.5462568159 191 189 182 255 
-0.108144981844 0.0331932765325 -6.54822881651 211 202 187 255 
-0.105349427131 0.0331932765325 -6.55024521136 206 193 175 255 
-0.102553872417 0.0331932765325 -6.55230600044 202 188 170 255 
-0.0997583177027 0.0331932765325 -6.55441118376 199 189 174 255 
-0.0969627629887 0.0331932765325 -6.55656076132 193 186 175 255 
-0.0941672082748 0.0331932765325 -6.55875473312 193 188 178 255 
-0.0913716535609 0.0331932765325 -6.56099309915 216 207 190 255 
-0.088576098847 0.0331932765325 -6.56327585943 220 206 185 255 
-0.0857805441331 0.0331932765325 -6.56560301394 219 205 183 255 
-0.0829849894191 0.0331932765325 -6.56797456269 212 196 175 255 
-0.0801894347052 0.0331932765325 -6.57039050568 176 160 144 255 
-0.0773938799913 0.0331932765325 -6.5728508429 176 161 142 255 
-0.0745983252774 0.0331932765325 -6.57535557436 194 180 161 255 
-0.0718027705635 0.0331932765325 -6.57790470007 170 148 127 255 
-0.0690072158495 0.0331932765325 -6.58049822 153 133 117 255 
-0.0662116611356 0.0331932765325 -6.58313613418 169 151 130 255 
-0.0634161064217 0.0331932765325 -6.5858184426 233 214 177 255 
-0.0606205517078 0.0331932765325 -6.58854514525 229 207 173 255 
-0.0578249969938 0.0331932765325 -6.59131624214 213 191 161 255 
-0.0550294422799 0.0331932765325 -6.59413173327 180 159 134 255 
-0.052233887566 0.0331932765325 -6.59699161863 179 153 122 255 
-0.0494383328521 0.0331932765325 -6.59989589824 180 154 125 255 
-0.0466427781382 0.0331932765325 -6.60284457208 185 165 138 255 
-0.0438472234242 0.0331932765325 -6.60583764016 200 182 152 255 
-0.0410516687103 0.0331932765325 -6.60887510248 224 205 172 255 
-0.0382561139964 0.0331932765325 -6.61195695903 230 212 183 255 
-0.0354605592825 0.0331932765325 -6.61508320983 237 221 194 255 
-0.0326650045686 0.0331932765325 -6.61825385486 248 237 213 255 
-0.0298694498546 0.0331932765325 -6.62146889413 250 237 212 255 
-0.0270738951407 0.0331932765325 -6.62472832763 240 218 179 255 
-0.0242783404268 0.0331932765325 -6.62803215538 225 205 171 255 
-0.0214827857129 0.0331932765325 -6.63138037736 232 219 188 255 
-0.018687230999 0.0331932765325 -6.63477299358 234 222 193 255 
-0.015891676285 0.0331932765325 -6.63821000404 239 228 199 255 
-0.0130961215711 0.0331932765325 -6.64169140874 244 233 205 255 
-0.0103005668572 0.0331932765325 -6.64521720767 237 225 196 255 
-0.00750501214327 0.0331932765325 -6.64878740085 244 230 200 255 
-0.00470945742934 0.0331932765325 -6.65240198826 252 234 206 255 
-0.00191390271542 0.0331932765325 -6.65606096991 252 234 206 255 
0.000881651998498 0.0331932765325 -6.65976434579 252 233 202 255 
-0.415656000376 0.0367602965976 -6.59750483853 81 94 108 255 
-0.412860445662 0.0367602965976 -6.59463598845 86 96 108 255 
-0.410064890948 0.0367602965976 -6.59181153261 86 96 108 255 
-0.407269336234 0.0367602965976 -6.58903147101 86 96 108 255 
-0.40447378152 0.0367602965976 -6.58629580365 86 96 108 255 
-0.401678226806 0.0367602965976 -6.58360453052 86 96 108 255 
-0.398882672092 0.0367602965976 -6.58095765163 86 96 108 255 
-0.396087117378 0.0367602965976 -6.57835516698 86 96 108 255 
-0.393291562664 0.0367602965976 -6.57579707657 85 95 107 255 
-0.39049600795 0.0367602965976 -6.5732833804 91 99 110 255 
-0.387700453237 0.0367602965976 -6.57081407846 89 98 108 255 
-0.384904898523 0.0367602965976 -6.56838917076 89 98 108 255 
-0.382109343809 0.0367602965976 -6.5660086573 115 124 134 255 
-0.379313789095 0.0367602965976 -6.56367253808 144 153 162 255 
-0.376518234381 0.0367602965976 -6.5613808131 155 155 149 255 
-0.373722679667 0.0367602965976 -6.55913348235 159 159 150 255 
-0.370927124953 0.0367602965976 -6.55693054584 149 147 140 255 
-0.368131570239 0.0367602965976 -6.55477200357 102 98 96 255 
-0.365336015525 0.0367602965976 -6.55265785554 90 91 93 255 
-0.362540460811 0.0367602965976 -6.55058810174 92 94 96 255 
-0.359744906097 0.0367602965976 -6.54856274218 98 99 101 255 
-0.356949351383 0.0367602965976 -6.54658177686 89 92 97 255 
-0.354153796669 0.0367602965976 -6.54464520578 87 90 95 255 
-0.351358241956 0.0367602965976 -6.54275302894 71 76 82 255 
-0.348562687242 0.0367602965976 -6.54090524633 70 76 82 255 
-0.345767132528 0.0367602965976 -6.53910185797 95 103 112 255 
-0.342971577814 0.0367602965976 -6.53734286384 143 154 166 255 
-0.3401760231 0.0367602965976 -6.53562826394 149 160 171 255 
-0.337380468386 0.0367602965976 -6.53395805829 163 172 178 255 
-0.334584913672 0.0367602965976 -6.53233224687 172 176 180 255 
-0.331789358958 0.0367602965976 -6.5307508297 188 189 189 255 
-0.328993804244 0.0367602965976 -6.52921380676 182 182 180 255 
-0.32619824953 0.0367602965976 -6.52772117805 178 178 175 255 
-0.323402694816 0.0367602965976 -6.52627294359 176 177 176 255 
-0.320607140102 0.0367602965976 -6.52486910336 171 178 183 255 
-0.317811585389 0.0367602965976 -6.52350965737 170 177 183 255 
-0.315016030675 0.0367602965976 -6.52219460562 177 180 181 255 
-0.312220475961 0.0367602965976 -6.52092394811 181 183 181 255 
-0.309424921247 0.0367602965976 -6.51969768483 177 178 175 255 
-0.306629366533 0.0367602965976 -6.5185158158 169 169 164 255 
-0.303833811819 0.0367602965976 -6.517378341 159 164 168 255 
-0.301038257105 0.0367602965976 -6.51628526044 152 158 165 255 
-0.298242702391 0.0367602965976 -6.51523657411 147 154 161 255 
-0.295447147677 0.0367602965976 -6.51423228203 154 160 166 255 
-0.292651592963 0.0367602965976 -6.51327238418 170 173 176 255 
-0.289856038249 0.0367602965976 -6.51235688057 181 183 182 255 
-0.287060483535 0.0367602965976 -6.5114857712 183 181 178 255 
-0.284264928821 0.0367602965976 -6.51065905606 190 187 180 255 
-0.281469374108 0.0367602965976 -6.50987673517 176 172 165 255 
-0.278673819394 0.0367602965976 -6.50913880851 152 147 142 255 
-0.27587826468 0.0367602965976 -6.50844527609 158 153 150 255 
-0.273082709966 0.0367602965976 -6.50779613791 165 161 157 255 
-0.270287155252 0.0367602965976 -6.50719139396 118 125 131 255 
-0.267491600538 0.0367602965976 -6.50663104426 74 93 111 255 
-0.264696045824 0.0367602965976 -6.50611508879 78 93 109 255 
-0.26190049111 0.0367602965976 -6.50564352756 92 98 106 255 
-0.259104936396 0.0367602965976 -6.50521636056 95 97 102 255 
-0.256309381682 0.0367602965976 -6.50483358781 104 107 110 255 
-0.253513826968 0.0367602965976 -6.50449520929 134 135 134 255 
-0.250718272254 0.0367602965976 -6.50420122501 162 158 152 255 
-0.24792271754 0.0367602965976 -6.50395163497 161 155 149 255 
-0.245127162827 0.0367602965976 -6.50374643917 160 154 148 255 
-0.242331608113 0.0367602965976 -6.5035856376 162 157 151 255 
-0.239536053399 0.0367602965976 -6.50346923027 172 167 160 255 
-0.236740498685 0.0367602965976 -6.50339721718 100 104 111 255 
-0.233944943971 0.0367602965976 -6.50336959833 85 92 102 255 
-0.231149389257 0.0367602965976 -6.50338637372 99 100 104 255 
-0.228353834543 0.0367602965976 -6.50344754334 99 100 104 255 
-0.225558279829 0.0367602965976 -6.5035531072 109 110 111 255 
-0.222762725115 0.0367602965976 -6.5037030653 127 128 128 255 
-0.219967170401 0.0367602965976 -6.50389741764 171 167 163 255 
-0.217171615687 0.0367602965976 -6.50413616422 160 164 167 255 
-0.214376060973 0.0367602965976 -6.50441930503 157 162 166 255 
-0.21158050626 0.0367602965976 -6.50474684008 170 174 175 255 
-0.208784951546 0.0367602965976 -6.50511876937 197 196 191 255 
-0.205989396832 0.0367602965976 -6.5055350929 206 204 196 255 
-0.203193842118 0.0367602965976 -6.50599581066 212 208 198 255 
-0.200398287404 0.0367602965976 -6.50650092267 211 207 196 255 
-0.19760273269 0.0367602965976 -6.50705042891 189 179 168 255 
-0.194807177976 0.0367602965976 -6.50764432939 180 169 157 255 
-0.192011623262 0.0367602965976 -6.5082826241 175 170 164 255 
-0.189216068548 0.0367602965976 -6.50896531306 163 164 164 255 
-0.186420513834 0.0367602965976 -6.50969239625 167 169 170 255 
-0.18362495912 0.0367602965976 -6.51046387368 196 196 191 255 
-0.180829404406 0.0367602965976 -6.51127974535 213 209 200 255 
-0.178033849692 0.0367602965976 -6.51214001126 221 215 202 255 
-0.175238294979 0.0367602965976 -6.5130446714 206 197 182 255 
-0.172442740265 0.0367602965976 -6.51399372578 194 183 168 255 
-0.169647185551 0.0367602965976 -6.5149871744 191 182 167 255 
-0.166851630837 0.0367602965976 -6.51602501726 178 167 152 255 
-0.164056076123 0.0367602965976 -6.51710725436 168 157 143 255 
-0.161260521409 0.0367602965976 -6.51823388569 166 156 145 255 
-0.158464966695 0.0367602965976 -6.51940491126 156 153 148 255 
-0.155669411981 0.0367602965976 -6.52062033107 142 137 134 255 
-0.152873857267 0.0367602965976 -6.52188014512 127 124 122 255 
-0.150078302553 0.0367602965976 -6.5231843534 129 126 124 255 
-0.147282747839 0.0367602965976 -6.52453295593 184 178 167 255 
-0.144487193125 0.0367602965976 -6.52592595269 197 186 170 255 
-0.141691638411 0.0367602965976 -6.52736334369 199 189 174 255 
-0.138896083698 0.0367602965976 -6.52884512892 183 172 157 255 
-0.136100528984 0.0367602965976 -6.5303713084 175 164 149 255 
-0.13330497427 0.0367602965976 -6.53194188211 175 168 155 255 
-0.130509419556 0.0367602965976 -6.53355685006 170 165 157 255 
-0.127713864842 0.0367602965976 -6.53521621225 150 142 136 255 
-0.124918310128 0.0367602965976 -6.53691996868 135 129 125 255 
-0.122122755414 0.0367602965976 -6.53866811934 161 157 149 255 
-0.1193272007 0.0367602965976 -6.54046066424 192 184 172 255 
-0.116531645986 0.0367602965976 -6.54229760338 184 178 170 255 
-0.113736091272 0.0367602965976 -6.54417893676 178 178 173 255 
-0.110940536558 0.0367602965976 -6.54610466438 193 190 181 255 
-0.108144981844 0.0367602965976 -6.54807478623 211 203 187 255 
-0.105349427131 0.0367602965976 -6.55008930232 197 182 164 255 
-0.102553872417 0.0367602965976 -6.55214821265 194 178 160 255 
-0.0997583177027 0.0367602965976 -6.55425151722 189 175 157 255 
-0.0969627629887 0.0367602965976 -6.55639921602 172 167 159 255 
-0.0941672082748 0.0367602965976 -6.55859130907 182 179 171 255 
-0.0913716535609 0.0367602965976 -6.56082779635 215 206 189 255 
-0.088576098847 0.0367602965976 -6.56310867787 221 208 188 255 
-0.0857805441331 0.0367602965976 -6.56543395362 222 206 183 255 
-0.0829849894191 0.0367602965976 -6.56780362362 222 207 185 255 
-0.0801894347052 0.0367602965976 -6.57021768785 187 170 151 255 
-0.0773938799913 0.0367602965976 -6.57267614632 167 153 135 255 
-0.0745983252774 0.0367602965976 -6.57517899903 167 153 135 255 
-0.0718027705635 0.0367602965976 -6.57772624598 167 146 124 255 
-0.0690072158495 0.0367602965976 -6.58031788716 144 122 103 255 
-0.0662116611356 0.0367602965976 -6.58295392258 172 153 127 255 
-0.0634161064217 0.0367602965976 -6.58563435224 224 204 169 255 
-0.0606205517078 0.0367602965976 -6.58835917614 236 212 175 255 
-0.0578249969938 0.0367602965976 -6.59112839428 213 189 158 255 
-0.0550294422799 0.0367602965976 -6.59394200665 190 171 146 255 
-0.052233887566 0.0367602965976 -6.59680001326 183 163 139 255 
-0.0494383328521 0.0367602965976 -6.59970241411 177 153 125 255 
-0.0466427781382 0.0367602965976 -6.6026492092 177 157 131 255 
-0.0438472234242 0.0367602965976 -6.60564039853 208 191 159 255 
-0.0410516687103 0.0367602965976 -6.60867598209 232 214 184 255 
-0.0382561139964 0.0367602965976 -6.61175595989 228 208 180 255 
-0.0354605592825 0.0367602965976 -6.61488033193 239 222 190 255 
-0.0326650045686 0.0367602965976 -6.61804909821 249 236 208 255 
-0.0298694498546 0.0367602965976 -6.62126225872 248 235 206 255 
-0.0270738951407 0.0367602965976 -6.62451981347 240 222 190 255 
-0.0242783404268 0.0367602965976 -6.62782176246 223 202 169 255 
-0.0214827857129 0.0367602965976 -6.63116810569 225 209 177 255 
-0.018687230999 0.0367602965976 -6.63455884316 234 222 192 255 
-0.015891676285 0.0367602965976 -6.63799397486 240 229 200 255 
-0.0130961215711 0.0367602965976 -6.64147350081 242 231 202 255 
-0.0103005668572 0.0367602965976 -6.64499742099 238 225 195 255 
-0.00750501214327 0.0367602965976 -6.64856573541 242 227 197 255 
-0.00470945742934 0.0367602965976 -6.65217844406 246 230 202 255 
-0.00191390271542 0.0367602965976 -6.65583554696 248 232 204 255 
0.000881651998498 0.0367602965976 -6.65953704409 242 223 190 255 
-0.415656000376 0.0403273166626 -6.59755925259 86 96 108 255 
-0.412860445662 0.0403273166626 -6.59468852376 86 96 108 255 
-0.410064890948 0.0403273166626 -6.59186218916 86 96 108 255 
-0.407269336234 0.0403273166626 -6.58908024881 86 96 108 255 
-0.40447378152 0.0403273166626 -6.58634270269 86 96 108 255 
-0.401678226806 0.0403273166626 -6.58364955081 86 96 108 255 
-0.398882672092 0.0403273166626 -6.58100079316 86 96 108 255 
-0.396087117378 0.0403273166626 -6.57839642976 86 96 108 255 
-0.393291562664 0.0403273166626 -6.57583646059 84 94 108 255 
-0.39049600795 0.0403273166626 -6.57332088566 88 96 108 255 
-0.387700453237 0.0403273166626 -6.57084970497 88 96 108 255 
-0.384904898523 0.0403273166626 -6.56842291852 95 101 110 255 
-0.382109343809 0.0403273166626 -6.56604052631 110 119 130 255 
-0.379313789095 0.0403273166626 -6.56370252833 140 150 162 255 
-0.376518234381 0.0403273166626 -6.56140892459 152 153 149 255 
-0.373722679667 0.0403273166626 -6.55915971509 156 154 147 255 
-0.370927124953 0.0403273166626 -6.55695489983 156 154 146 255 
-0.368131570239 0.0403273166626 -6.5547944788 122 119 113 255 
-0.365336015525 0.0403273166626 -6.55267845201 91 93 97 255 
-0.362540460811 0.0403273166626 -6.55060681946 91 93 97 255 
-0.359744906097 0.0403273166626 -6.54857958115 94 96 99 255 
-0.356949351383 0.0403273166626 -6.54659673708 90 94 101 255 
-0.354153796669 0.0403273166626 -6.54465828724 72 77 81 255 
-0.351358241956 0.0403273166626 -6.54276423164 62 68 72 255 
-0.348562687242 0.0403273166626 -6.54091457028 61 68 75 255 
-0.345767132528 0.0403273166626 -6.53910930316 81 89 98 255 
-0.342971577814 0.0403273166626 -6.53734843028 146 155 168 255 
-0.3401760231 0.0403273166626 -6.53563195163 151 158 166 255 
-0.337380468386 0.0403273166626 -6.53395986722 169 173 172 255 
-0.334584913672 0.0403273166626 -6.53233217705 159 162 163 255 
-0.331789358958 0.0403273166626 -6.53074888112 174 173 171 255 
-0.328993804244 0.0403273166626 -6.52920997942 177 176 174 255 
-0.32619824953 0.0403273166626 -6.52771547197 179 178 176 255 
-0.323402694816 0.0403273166626 -6.52626535875 180 181 180 255 
-0.320607140102 0.0403273166626 -6.52485963977 174 179 183 255 
-0.317811585389 0.0403273166626 -6.52349831502 171 178 186 255 
-0.315016030675 0.0403273166626 -6.52218138452 173 178 179 255 
-0.312220475961 0.0403273166626 -6.52090884825 175 178 177 255 
-0.309424921247 0.0403273166626 -6.51968070622 177 178 174 255 
-0.306629366533 0.0403273166626 -6.51849695843 170 171 167 255 
-0.303833811819 0.0403273166626 -6.51735760487 165 165 160 255 
-0.301038257105 0.0403273166626 -6.51626264556 158 166 174 255 
-0.298242702391 0.0403273166626 -6.51521208048 162 169 175 255 
-0.295447147677 0.0403273166626 -6.51420590964 167 174 179 255 
-0.292651592963 0.0403273166626 -6.51324413304 175 179 182 255 
-0.289856038249 0.0403273166626 -6.51232675067 179 182 182 255 
-0.287060483535 0.0403273166626 -6.51145376255 190 190 187 255 
-0.284264928821 0.0403273166626 -6.51062516866 188 185 179 255 
-0.281469374108 0.0403273166626 -6.50984096901 175 171 163 255 
-0.278673819394 0.0403273166626 -6.5091011636 150 144 138 255 
-0.27587826468 0.0403273166626 -6.50840575242 159 154 150 255 
-0.273082709966 0.0403273166626 -6.50775473548 168 164 159 255 
-0.270287155252 0.0403273166626 -6.50714811279 151 150 145 255 
-0.267491600538 0.0403273166626 -6.50658588432 68 80 92 255 
-0.264696045824 0.0403273166626 -6.5060680501 79 85 92 255 
-0.26190049111 0.0403273166626 -6.50559461012 83 88 94 255 
-0.259104936396 0.0403273166626 -6.50516556437 98 100 104 255 
-0.256309381682 0.0403273166626 -6.50478091286 98 100 104 255 
-0.253513826968 0.0403273166626 -6.50444065559 119 120 122 255 
-0.250718272254 0.0403273166626 -6.50414479255 159 155 150 255 
-0.24792271754 0.0403273166626 -6.50389332376 160 154 149 255 
-0.245127162827 0.0403273166626 -6.5036862492 156 149 143 255 
-0.242331608113 0.0403273166626 -6.50352356888 163 157 151 255 
-0.239536053399 0.0403273166626 -6.5034052828 165 160 151 255 
-0.236740498685 0.0403273166626 -6.50333139095 106 107 108 255 
-0.233944943971 0.0403273166626 -6.50330189335 84 88 95 255 
-0.231149389257 0.0403273166626 -6.50331678998 84 88 95 255 
-0.228353834543 0.0403273166626 -6.50337608085 120 121 126 255 
-0.225558279829 0.0403273166626 -6.50347976596 147 148 146 255 
-0.222762725115 0.0403273166626 -6.5036278453 164 164 160 255 
-0.219967170401 0.0403273166626 -6.50382031889 171 169 164 255 
-0.217171615687 0.0403273166626 -6.50405718671 157 158 159 255 
-0.214376060973 0.0403273166626 -6.50433844877 154 159 163 255 
-0.21158050626 0.0403273166626 -6.50466410506 161 165 168 255 
-0.208784951546 0.0403273166626 -6.5050341556 185 186 183 255 
-0.205989396832 0.0403273166626 -6.50544860037 203 201 194 255 
-0.203193842118 0.0403273166626 -6.50590743938 213 209 200 255 
-0.200398287404 0.0403273166626 -6.50641067263 209 204 194 255 
-0.19760273269 0.0403273166626 -6.50695830012 191 183 172 255 
-0.194807177976 0.0403273166626 -6.50755032184 176 164 152 255 
-0.192011623262 0.0403273166626 -6.5081867378 171 166 159 255 
-0.189216068548 0.0403273166626 -6.508867548 162 164 164 255 
-0.186420513834 0.0403273166626 -6.50959275244 167 169 170 255 
-0.18362495912 0.0403273166626 -6.51036235112 193 193 189 255 
-0.180829404406 0.0403273166626 -6.51117634403 213 209 198 255 
-0.178033849692 0.0403273166626 -6.51203473118 217 212 198 255 
-0.175238294979 0.0403273166626 -6.51293751257 205 196 181 255 
-0.172442740265 0.0403273166626 -6.5138846882 192 180 165 255 
-0.169647185551 0.0403273166626 -6.51487625806 186 175 161 255 
-0.166851630837 0.0403273166626 -6.51591222217 167 155 143 255 
-0.164056076123 0.0403273166626 -6.51699258051 156 144 133 255 
-0.161260521409 0.0403273166626 -6.51811733309 156 145 134 255 
-0.158464966695 0.0403273166626 -6.5192864799 153 150 143 255 
-0.155669411981 0.0403273166626 -6.52050002096 127 123 120 255 
-0.152873857267 0.0403273166626 -6.52175795625 125 121 119 255 
-0.150078302553 0.0403273166626 -6.52306028578 141 138 133 255 
-0.147282747839 0.0403273166626 -6.52440700955 196 187 172 255 
-0.144487193125 0.0403273166626 -6.52579812756 194 182 166 255 
-0.141691638411 0.0403273166626 -6.5272336398 194 183 169 255 
-0.138896083698 0.0403273166626 -6.52871354629 181 170 154 255 
-0.136100528984 0.0403273166626 -6.53023784701 167 156 139 255 
-0.13330497427 0.0403273166626 -6.53180654196 177 170 153 255 
-0.130509419556 0.0403273166626 -6.53341963116 179 176 163 255 
-0.127713864842 0.0403273166626 -6.53507711459 156 148 141 255 
-0.124918310128 0.0403273166626 -6.53677899227 133 126 123 255 
-0.122122755414 0.0403273166626 -6.53852526418 146 141 135 255 
-0.1193272007 0.0403273166626 -6.54031593032 193 183 170 255 
-0.116531645986 0.0403273166626 -6.54215099071 184 177 169 255 
-0.113736091272 0.0403273166626 -6.54403044533 174 175 170 255 
-0.110940536558 0.0403273166626 -6.54595429419 194 192 183 255 
-0.108144981844 0.0403273166626 -6.54792253729 214 207 193 255 
-0.105349427131 0.0403273166626 -6.54993517463 195 181 165 255 
-0.102553872417 0.0403273166626 -6.5519922062 178 162 146 255 
-0.0997583177027 0.0403273166626 -6.55409363202 170 155 141 255 
-0.0969627629887 0.0403273166626 -6.55623945207 166 159 149 255 
-0.0941672082748 0.0403273166626 -6.55842966636 175 172 163 255 
-0.0913716535609 0.0403273166626 -6.56066427488 216 206 189 255 
-0.088576098847 0.0403273166626 -6.56294327765 223 206 181 255 
-0.0857805441331 0.0403273166626 -6.56526667465 222 206 183 255 
-0.0829849894191 0.0403273166626 -6.56763446589 222 204 179 255 
-0.0801894347052 0.0403273166626 -6.57004665137 207 189 170 255 
-0.0773938799913 0.0403273166626 -6.57250323109 143 130 112 255 
-0.0745983252774 0.0403273166626 -6.57500420504 135 120 102 255 
-0.0718027705635 0.0403273166626 -6.57754957323 151 130 109 255 
-0.0690072158495 0.0403273166626 -6.58013933566 123 100 83 255 
-0.0662116611356 0.0403273166626 -6.58277349233 147 129 106 255 
-0.0634161064217 0.0403273166626 -6.58545204323 211 188 152 255 
-0.0606205517078 0.0403273166626 -6.58817498838 219 193 158 255 
-0.0578249969938 0.0403273166626 -6.59094232776 160 132 111 255 
-0.0550294422799 0.0403273166626 -6.59375406138 169 147 125 255 
-0.052233887566 0.0403273166626 -6.59661018924 182 156 127 255 
-0.0494383328521 0.0403273166626 -6.59951071133 187 156 122 255 
-0.0466427781382 0.0403273166626 -6.60245562766 143 124 105 255 
-0.0438472234242 0.0403273166626 -6.60544493824 201 181 151 255 
-0.0410516687103 0.0403273166626 -6.60847864304 196 173 148 255 
-0.0382561139964 0.0403273166626 -6.61155674209 217 196 171 255 
-0.0354605592825 0.0403273166626 -6.61467923538 244 230 196 255 
-0.0326650045686 0.0403273166626 -6.6178461229 245 230 197 255 
-0.0298694498546 0.0403273166626 -6.62105740466 248 234 201 255 
-0.0270738951407 0.0403273166626 -6.62431308066 214 195 168 255 
-0.0242783404268 0.0403273166626 -6.62761315089 211 189 159 255 
-0.0214827857129 0.0403273166626 -6.63095761537 219 199 166 255 
-0.018687230999 0.0403273166626 -6.63434647408 228 212 178 255 
-0.015891676285 0.0403273166626 -6.63777972703 239 227 197 255 
-0.0130961215711 0.0403273166626 -6.64125737422 241 229 199 255 
-0.0103005668572 0.0403273166626 -6.64477941564 234 222 191 255 
-0.00750501214327 0.0403273166626 -6.64834585131 240 227 198 255 
-0.00470945742934 0.0403273166626 -6.65195668121 245 229 203 255 
-0.00191390271542 0.0403273166626 -6.65561190535 243 226 198 255 
0.000881651998498 0.0403273166626 -6.65931152373 241 221 186 255 
-0.415656000376 0.0438943367276 -6.59761544799 86 96 108 255 
-0.412860445662 0.0438943367276 -6.5947428404 86 96 108 255 
-0.410064890948 0.0438943367276 -6.59191462705 86 96 108 255 
-0.407269336234 0.0438943367276 -6.58913080794 86 96 108 255 
-0.40447378152 0.0438943367276 -6.58639138307 86 96 108 255 
-0.401678226806 0.0438943367276 -6.58369635243 86 96 108 255 
-0.398882672092 0.0438943367276 -6.58104571604 86 96 108 255 
-0.396087117378 0.0438943367276 -6.57843947388 88 96 108 255 
-0.393291562664 0.0438943367276 -6.57587762596 88 96 108 255 
-0.39049600795 0.0438943367276 -6.57336017227 88 96 108 255 
-0.387700453237 0.0438943367276 -6.57088711283 88 96 108 255 
-0.384904898523 0.0438943367276 -6.56845844762 88 96 108 255 
-0.382109343809 0.0438943367276 -6.56607417665 112 121 133 255 
-0.379313789095 0.0438943367276 -6.56373429992 157 165 176 255 
-0.376518234381 0.0438943367276 -6.56143881743 143 141 132 255 
-0.373722679667 0.0438943367276 -6.55918772917 139 136 127 255 
-0.370927124953 0.0438943367276 -6.55698103515 138 133 124 255 
-0.368131570239 0.0438943367276 -6.55481873537 104 101 96 255 
-0.365336015525 0.0438943367276 -6.55270082983 72 77 83 255 
-0.362540460811 0.0438943367276 -6.55062731853 70 75 82 255 
-0.359744906097 0.0438943367276 -6.54859820146 57 63 70 255 
-0.356949351383 0.0438943367276 -6.54661347863 55 60 66 255 
-0.354153796669 0.0438943367276 -6.54467315004 64 70 76 255 
-0.351358241956 0.0438943367276 -6.54277721569 59 64 68 255 
-0.348562687242 0.0438943367276 -6.54092567558 57 62 68 255 
-0.345767132528 0.0438943367276 -6.5391185297 92 99 108 255 
-0.342971577814 0.0438943367276 -6.53735577806 151 158 165 255 
-0.3401760231 0.0438943367276 -6.53563742066 169 171 170 255 
-0.337380468386 0.0438943367276 -6.5339634575 172 173 171 255 
-0.334584913672 0.0438943367276 -6.53233388857 161 161 159 255 
-0.331789358958 0.0438943367276 -6.53074871388 180 179 178 255 
-0.328993804244 0.0438943367276 -6.52920793343 187 187 186 255 
-0.32619824953 0.0438943367276 -6.52771154722 185 185 184 255 
-0.323402694816 0.0438943367276 -6.52625955525 178 179 177 255 
-0.320607140102 0.0438943367276 -6.52485195751 168 173 177 255 
-0.317811585389 0.0438943367276 -6.52348875402 170 177 183 255 
-0.315016030675 0.0438943367276 -6.52216994476 173 177 178 255 
-0.312220475961 0.0438943367276 -6.52089552973 185 185 181 255 
-0.309424921247 0.0438943367276 -6.51966550895 181 182 178 255 
-0.306629366533 0.0438943367276 -6.5184798824 169 168 164 255 
-0.303833811819 0.0438943367276 -6.5173386501 160 160 155 255 
-0.301038257105 0.0438943367276 -6.51624181202 139 145 153 255 
-0.298242702391 0.0438943367276 -6.51518936819 141 147 156 255 
-0.295447147677 0.0438943367276 -6.5141813186 159 166 173 255 
-0.292651592963 0.0438943367276 -6.51321766324 164 170 175 255 
-0.289856038249 0.0438943367276 -6.51229840212 175 179 181 255 
-0.287060483535 0.0438943367276 -6.51142353524 188 189 186 255 
-0.284264928821 0.0438943367276 -6.5105930626 200 197 188 255 
-0.281469374108 0.0438943367276 -6.50980698419 178 173 165 255 
-0.278673819394 0.0438943367276 -6.50906530003 150 143 137 255 
-0.27587826468 0.0438943367276 -6.5083680101 159 154 149 255 
-0.273082709966 0.0438943367276 -6.50771511441 173 170 164 255 
-0.270287155252 0.0438943367276 -6.50710661295 142 141 137 255 
-0.267491600538 0.0438943367276 -6.50654250574 72 78 84 255 
-0.264696045824 0.0438943367276 -6.50602279276 75 80 86 255 
-0.26190049111 0.0438943367276 -6.50554747402 80 85 93 255 
-0.259104936396 0.0438943367276 -6.50511654952 102 104 108 255 
-0.256309381682 0.0438943367276 -6.50473001925 121 122 124 255 
-0.253513826968 0.0438943367276 -6.50438788323 156 155 153 255 
-0.250718272254 0.0438943367276 -6.50409014144 168 165 161 255 
-0.24792271754 0.0438943367276 -6.50383679389 157 150 144 255 
-0.245127162827 0.0438943367276 -6.50362784058 157 150 144 255 
-0.242331608113 0.0438943367276 -6.5034632815 159 153 145 255 
-0.239536053399 0.0438943367276 -6.50334311667 164 160 151 255 
-0.236740498685 0.0438943367276 -6.50326734607 102 105 104 255 
-0.233944943971 0.0438943367276 -6.50323596971 68 73 79 255 
-0.231149389257 0.0438943367276 -6.50324898758 71 75 82 255 
-0.228353834543 0.0438943367276 -6.5033063997 107 107 107 255 
-0.225558279829 0.0438943367276 -6.50340820605 160 159 155 255 
-0.222762725115 0.0438943367276 -6.50355440664 161 159 155 255 
-0.219967170401 0.0438943367276 -6.50374500147 169 166 162 255 
-0.217171615687 0.0438943367276 -6.50397999054 157 158 158 255 
-0.214376060973 0.0438943367276 -6.50425937384 144 149 154 255 
-0.21158050626 0.0438943367276 -6.50458315138 162 166 168 255 
-0.208784951546 0.0438943367276 -6.50495132317 191 191 187 255 
-0.205989396832 0.0438943367276 -6.50536388918 199 198 192 255 
-0.203193842118 0.0438943367276 -6.50582084944 209 206 196 255 
-0.200398287404 0.0438943367276 -6.50632220393 202 197 186 255 
-0.19760273269 0.0438943367276 -6.50686795267 186 177 165 255 
-0.194807177976 0.0438943367276 -6.50745809564 167 155 141 255 
-0.192011623262 0.0438943367276 -6.50809263284 169 162 151 255 
-0.189216068548 0.0438943367276 -6.50877156429 155 158 159 255 
-0.186420513834 0.0438943367276 -6.50949488997 172 175 174 255 
-0.18362495912 0.0438943367276 -6.51026260989 195 195 191 255 
-0.180829404406 0.0438943367276 -6.51107472405 215 210 199 255 
-0.178033849692 0.0438943367276 -6.51193123245 215 210 196 255 
-0.175238294979 0.0438943367276 -6.51283213509 195 183 168 255 
-0.172442740265 0.0438943367276 -6.51377743196 188 176 160 255 
-0.169647185551 0.0438943367276 -6.51476712307 171 159 148 255 
-0.166851630837 0.0438943367276 -6.51580120842 163 150 141 255 
-0.164056076123 0.0438943367276 -6.51687968801 151 139 130 255 
-0.161260521409 0.0438943367276 -6.51800256183 143 131 122 255 
-0.158464966695 0.0438943367276 -6.51916982989 144 137 131 255 
-0.155669411981 0.0438943367276 -6.52038149219 139 134 130 255 
-0.152873857267 0.0438943367276 -6.52163754873 119 114 112 255 
-0.150078302553 0.0438943367276 -6.52293799951 128 124 120 255 
-0.147282747839 0.0438943367276 -6.52428284452 176 170 158 255 
-0.144487193125 0.0438943367276 -6.52567208377 200 189 173 255 
-0.141691638411 0.0438943367276 -6.52710571726 187 176 161 255 
-0.138896083698 0.0438943367276 -6.52858374499 181 169 155 255 
-0.136100528984 0.0438943367276 -6.53010616696 152 140 129 255 
-0.13330497427 0.0438943367276 -6.53167298316 163 152 136 255 
