ply
format ascii 1.0
element vertex 775
property float x
property float y
property float z
property uchar red
property uchar green
property uchar blue
property uchar alpha
end_header
-0.364946072934 0.109823876879 -6.54711224541 124 120 118 255 
-0.360314066378 0.109823876879 -6.54498666058 117 115 115 255 
-0.355682059822 0.109823876879 -6.54286107574 104 102 101 255 
-0.351050053267 0.109823876879 -6.5407354909 92 92 91 255 
-0.346418046711 0.109823876879 -6.53860990606 94 95 94 255 
-0.341786040156 0.109823876879 -6.53648432122 87 88 86 255 
-0.3371540336 0.109823876879 -6.53435873638 137 136 130 255 
-0.332522027044 0.109823876879 -6.53223315154 164 163 155 255 
-0.327890020489 0.109823876879 -6.5301075667 162 163 161 255 
-0.323258013933 0.109823876879 -6.52798198186 164 166 164 255 
-0.318626007378 0.109823876879 -6.52585639702 167 168 167 255 
-0.313994000822 0.109823876879 -6.52373081218 160 161 160 255 
-0.309361994267 0.109823876879 -6.52160522734 151 153 151 255 
-0.99953097105 0.113618131852 -6.838356755 73 74 73 255 
-0.994898964495 0.113618131852 -6.83623117016 73 74 73 255 
-0.990266957939 0.113618131852 -6.83410558532 73 74 73 255 
-0.985634951383 0.113618131852 -6.83198000048 72 73 73 255 
-0.981002944828 0.113618131852 -6.82985441565 68 69 70 255 
-0.976370938272 0.113618131852 -6.82772883081 63 63 65 255 
-0.971738931717 0.113618131852 -6.82560324597 63 63 65 255 
-0.967106925161 0.113618131852 -6.82347766113 61 62 63 255 
-0.962474918605 0.113618131852 -6.82135207629 61 62 63 255 
-0.95784291205 0.113618131852 -6.81922649145 65 66 66 255 
-0.953210905494 0.113618131852 -6.81710090661 79 79 79 255 
-0.948578898939 0.113618131852 -6.81497532177 98 96 92 255 
-0.943946892383 0.113618131852 -6.81284973693 98 96 92 255 
-0.939314885828 0.113618131852 -6.81072415209 93 91 87 255 
-0.934682879272 0.113618131852 -6.80859856725 93 91 87 255 
-0.930050872716 0.113618131852 -6.80647298241 93 91 87 255 
-0.925418866161 0.113618131852 -6.80434739758 93 91 88 255 
-0.920786859605 0.113618131852 -6.80222181274 88 88 82 255 
-0.91615485305 0.113618131852 -6.8000962279 88 88 82 255 
-0.911522846494 0.113618131852 -6.79797064306 87 87 80 255 
-0.906890839938 0.113618131852 -6.79584505822 86 86 80 255 
-0.902258833383 0.113618131852 -6.79371947338 96 95 92 255 
-0.897626826827 0.113618131852 -6.79159388854 83 83 81 255 
-0.892994820272 0.113618131852 -6.7894683037 88 88 80 255 
-0.888362813716 0.113618131852 -6.78734271886 84 83 73 255 
-0.88373080716 0.113618131852 -6.78521713402 84 83 73 255 
-0.879098800605 0.113618131852 -6.78309154918 75 73 60 255 
-0.874466794049 0.113618131852 -6.78096596434 84 84 77 255 
-0.869834787494 0.113618131852 -6.7788403795 86 87 84 255 
-0.865202780938 0.113618131852 -6.77671479467 95 96 93 255 
-0.860570774382 0.113618131852 -6.77458920983 95 96 93 255 
-0.855938767827 0.113618131852 -6.77246362499 87 88 84 255 
-0.851306761271 0.113618131852 -6.77033804015 87 88 84 255 
-0.846674754716 0.113618131852 -6.76821245531 66 66 63 255 
-0.84204274816 0.113618131852 -6.76608687047 64 66 62 255 
-0.837410741604 0.113618131852 -6.76396128563 66 68 64 255 
-0.832778735049 0.113618131852 -6.76183570079 68 69 67 255 
-0.828146728493 0.113618131852 -6.75971011595 68 69 66 255 
-0.823514721938 0.113618131852 -6.75758453111 72 73 70 255 
-0.818882715382 0.113618131852 -6.75545894627 73 74 70 255 
-0.814250708826 0.113618131852 -6.75333336143 77 78 74 255 
-0.809618702271 0.113618131852 -6.75120777659 69 71 66 255 
-0.804986695715 0.113618131852 -6.74908219176 68 69 67 255 
-0.80035468916 0.113618131852 -6.74695660692 71 73 71 255 
-0.795722682604 0.113618131852 -6.74483102208 77 78 76 255 
-0.791090676048 0.113618131852 -6.74270543724 76 76 71 255 
-0.786458669493 0.113618131852 -6.7405798524 70 71 66 255 
-0.781826662937 0.113618131852 -6.73845426756 64 65 61 255 
-0.777194656382 0.113618131852 -6.73632868272 71 73 69 255 
-0.772562649826 0.113618131852 -6.73420309788 95 97 93 255 
-0.76793064327 0.113618131852 -6.73207751304 75 76 73 255 
-0.763298636715 0.113618131852 -6.7299519282 71 72 69 255 
-0.758666630159 0.113618131852 -6.72782634336 79 80 78 255 
-0.754034623604 0.113618131852 -6.72570075852 91 94 91 255 
-0.749402617048 0.113618131852 -6.72357517369 83 86 83 255 
-0.744770610493 0.113618131852 -6.72144958885 93 96 93 255 
-0.740138603937 0.113618131852 -6.71932400401 98 102 99 255 
-0.735506597381 0.113618131852 -6.71719841917 104 108 107 255 
-0.730874590826 0.113618131852 -6.71507283433 101 105 103 255 
-0.72624258427 0.113618131852 -6.71294724949 104 108 106 255 
-0.721610577715 0.113618131852 -6.71082166465 112 116 114 255 
-0.716978571159 0.113618131852 -6.70869607981 109 113 111 255 
-0.712346564603 0.113618131852 -6.70657049497 118 121 121 255 
-0.707714558048 0.113618131852 -6.70444491013 122 126 125 255 
-0.703082551492 0.113618131852 -6.70231932529 113 116 114 255 
-0.698450544937 0.113618131852 -6.70019374045 111 116 114 255 
-0.693818538381 0.113618131852 -6.69806815561 100 104 102 255 
-0.689186531825 0.113618131852 -6.69594257078 106 111 114 255 
-0.68455452527 0.113618131852 -6.69381698594 103 111 113 255 
-0.679922518714 0.113618131852 -6.6916914011 127 134 137 255 
-0.675290512159 0.113618131852 -6.68956581626 145 154 159 255 
-0.670658505603 0.113618131852 -6.68744023142 152 162 172 255 
-0.666026499047 0.113618131852 -6.68531464658 137 146 155 255 
-0.661394492492 0.113618131852 -6.68318906174 96 101 106 255 
-0.656762485936 0.113618131852 -6.6810634769 133 141 144 255 
-0.652130479381 0.113618131852 -6.67893789206 146 153 154 255 
-0.647498472825 0.113618131852 -6.67681230722 163 169 171 255 
-0.642866466269 0.113618131852 -6.67468672238 146 152 152 255 
-0.638234459714 0.113618131852 -6.67256113754 142 148 150 255 
-0.633602453158 0.113618131852 -6.67043555271 163 168 169 255 
-0.628970446603 0.113618131852 -6.66830996787 147 152 149 255 
-0.624338440047 0.113618131852 -6.66618438303 140 144 140 255 
-0.619706433491 0.113618131852 -6.66405879819 164 170 168 255 
-0.615074426936 0.113618131852 -6.66193321335 165 174 176 255 
-0.61044242038 0.113618131852 -6.65980762851 153 161 161 255 
-0.605810413825 0.113618131852 -6.65768204367 148 155 154 255 
-0.601178407269 0.113618131852 -6.65555645883 156 164 165 255 
-0.596546400713 0.113618131852 -6.65343087399 171 179 179 255 
-0.591914394158 0.113618131852 -6.65130528915 171 179 178 255 
-0.587282387602 0.113618131852 -6.64917970431 160 166 163 255 
-0.582650381047 0.113618131852 -6.64705411947 163 168 166 255 
-0.578018374491 0.113618131852 -6.64492853463 172 178 180 255 
-0.573386367935 0.113618131852 -6.6428029498 175 182 183 255 
-0.56875436138 0.113618131852 -6.64067736496 180 187 191 255 
-0.564122354824 0.113618131852 -6.63855178012 184 192 195 255 
-0.559490348269 0.113618131852 -6.63642619528 164 169 167 255 
-0.554858341713 0.113618131852 -6.63430061044 154 157 156 255 
-0.550226335157 0.113618131852 -6.6321750256 162 168 169 255 
-0.545594328602 0.113618131852 -6.63004944076 161 166 165 255 
-0.540962322046 0.113618131852 -6.62792385592 155 158 156 255 
-0.536330315491 0.113618131852 -6.62579827108 152 154 153 255 
-0.531698308935 0.113618131852 -6.62367268624 156 162 161 255 
-0.52706630238 0.113618131852 -6.6215471014 162 167 168 255 
-0.522434295824 0.113618131852 -6.61942151656 161 168 164 255 
-0.517802289268 0.113618131852 -6.61729593173 161 168 164 255 
-0.513170282713 0.113618131852 -6.61517034689 155 158 160 255 
-0.508538276157 0.113618131852 -6.61304476205 155 157 157 255 
-0.503906269602 0.113618131852 -6.61091917721 163 166 166 255 
-0.499274263046 0.113618131852 -6.60879359237 148 151 148 255 
-0.49464225649 0.113618131852 -6.60666800753 126 126 120 255 
-0.490010249935 0.113618131852 -6.60454242269 132 133 126 255 
-0.485378243379 0.113618131852 -6.60241683785 89 87 76 255 
-0.480746236824 0.113618131852 -6.60029125301 78 74 65 255 
-0.476114230268 0.113618131852 -6.59816566817 72 68 62 255 
-0.471482223712 0.113618131852 -6.59604008333 110 108 104 255 
-0.466850217157 0.113618131852 -6.59391449849 121 119 115 255 
-0.462218210601 0.113618131852 -6.59178891365 95 92 85 255 
-0.457586204046 0.113618131852 -6.58966332882 94 90 84 255 
-0.45295419749 0.113618131852 -6.58753774398 103 99 92 255 
-0.448322190934 0.113618131852 -6.58541215914 114 109 104 255 
-0.443690184379 0.113618131852 -6.5832865743 125 119 114 255 
-0.439058177823 0.113618131852 -6.58116098946 135 128 121 255 
-0.434426171268 0.113618131852 -6.57903540462 139 132 126 255 
-0.429794164712 0.113618131852 -6.57690981978 152 147 143 255 
-0.425162158156 0.113618131852 -6.57478423494 145 140 135 255 
-0.420530151601 0.113618131852 -6.5726586501 155 149 143 255 
-0.415898145045 0.113618131852 -6.57053306526 157 151 143 255 
-0.41126613849 0.113618131852 -6.56840748042 142 135 131 255 
-0.406634131934 0.113618131852 -6.56628189558 136 131 129 255 
-0.402002125378 0.113618131852 -6.56415631074 126 120 117 255 
-0.397370118823 0.113618131852 -6.56203072591 129 123 119 255 
-0.392738112267 0.113618131852 -6.55990514107 154 148 143 255 
-0.388106105712 0.113618131852 -6.55777955623 147 142 140 255 
-0.383474099156 0.113618131852 -6.55565397139 138 132 128 255 
-0.3788420926 0.113618131852 -6.55352838655 130 124 121 255 
-0.374210086045 0.113618131852 -6.55140280171 126 121 117 255 
-0.369578079489 0.113618131852 -6.54927721687 109 105 103 255 
-0.364946072934 0.113618131852 -6.54715163203 113 111 109 255 
-0.360314066378 0.113618131852 -6.54502604719 107 106 106 255 
-0.355682059822 0.113618131852 -6.54290046235 92 92 92 255 
-0.351050053267 0.113618131852 -6.54077487751 88 87 85 255 
-0.346418046711 0.113618131852 -6.53864929267 88 88 87 255 
-0.341786040156 0.113618131852 -6.53652370784 180 176 165 255 
-0.3371540336 0.113618131852 -6.534398123 171 168 158 255 
-0.332522027044 0.113618131852 -6.53227253816 160 158 151 255 
-0.327890020489 0.113618131852 -6.53014695332 164 166 164 255 
-0.323258013933 0.113618131852 -6.52802136848 168 169 167 255 
-0.318626007378 0.113618131852 -6.52589578364 165 165 163 255 
-0.313994000822 0.113618131852 -6.5237701988 161 162 163 255 
-0.309361994267 0.113618131852 -6.52164461396 151 153 151 255 
-0.99953097105 0.117412386825 -6.83839614162 73 74 73 255 
-0.994898964495 0.117412386825 -6.83627055678 73 74 73 255 
-0.990266957939 0.117412386825 -6.83414497194 70 71 71 255 
-0.985634951383 0.117412386825 -6.8320193871 70 71 71 255 
-0.981002944828 0.117412386825 -6.82989380226 70 71 71 255 
-0.976370938272 0.117412386825 -6.82776821742 63 63 65 255 
-0.971738931717 0.117412386825 -6.82564263258 63 63 65 255 
-0.967106925161 0.117412386825 -6.82351704774 61 62 63 255 
-0.962474918605 0.117412386825 -6.82139146291 61 62 63 255 
-0.95784291205 0.117412386825 -6.81926587807 65 66 66 255 
-0.953210905494 0.117412386825 -6.81714029323 79 79 79 255 
-0.948578898939 0.117412386825 -6.81501470839 98 96 92 255 
-0.943946892383 0.117412386825 -6.81288912355 98 96 92 255 
-0.939314885828 0.117412386825 -6.81076353871 93 91 87 255 
-0.934682879272 0.117412386825 -6.80863795387 93 91 87 255 
-0.930050872716 0.117412386825 -6.80651236903 93 91 87 255 
-0.925418866161 0.117412386825 -6.80438678419 93 91 88 255 
-0.920786859605 0.117412386825 -6.80226119935 93 91 88 255 
-0.91615485305 0.117412386825 -6.80013561451 88 88 82 255 
-0.911522846494 0.117412386825 -6.79801002967 87 87 80 255 
-0.906890839938 0.117412386825 -6.79588444483 86 86 80 255 
-0.902258833383 0.117412386825 -6.79375886 96 95 92 255 
-0.897626826827 0.117412386825 -6.79163327516 96 95 92 255 
-0.892994820272 0.117412386825 -6.78950769032 88 88 80 255 
-0.888362813716 0.117412386825 -6.78738210548 84 83 73 255 
-0.88373080716 0.117412386825 -6.78525652064 84 83 73 255 
-0.879098800605 0.117412386825 -6.7831309358 93 93 82 255 
-0.874466794049 0.117412386825 -6.78100535096 126 126 124 255 
-0.869834787494 0.117412386825 -6.77887976612 111 112 111 255 
-0.865202780938 0.117412386825 -6.77675418128 111 112 111 255 
-0.860570774382 0.117412386825 -6.77462859644 95 96 93 255 
-0.855938767827 0.117412386825 -6.7725030116 95 96 93 255 
-0.851306761271 0.117412386825 -6.77037742676 87 88 84 255 
-0.846674754716 0.117412386825 -6.76825184193 78 79 75 255 
-0.84204274816 0.117412386825 -6.76612625709 75 77 73 255 
-0.837410741604 0.117412386825 -6.76400067225 66 68 64 255 
-0.832778735049 0.117412386825 -6.76187508741 93 95 91 255 
-0.828146728493 0.117412386825 -6.75974950257 77 78 75 255 
-0.823514721938 0.117412386825 -6.75762391773 72 73 70 255 
-0.818882715382 0.117412386825 -6.75549833289 90 91 87 255 
-0.814250708826 0.117412386825 -6.75337274805 77 78 74 255 
-0.809618702271 0.117412386825 -6.75124716321 97 99 95 255 
-0.804986695715 0.117412386825 -6.74912157837 105 107 104 255 
-0.80035468916 0.117412386825 -6.74699599353 105 107 105 255 
-0.795722682604 0.117412386825 -6.74487040869 108 110 108 255 
-0.791090676048 0.117412386825 -6.74274482385 114 116 110 255 
-0.786458669493 0.117412386825 -6.74061923902 114 116 110 255 
-0.781826662937 0.117412386825 -6.73849365418 130 132 126 255 
-0.777194656382 0.117412386825 -6.73636806934 113 115 109 255 
-0.772562649826 0.117412386825 -6.7342424845 95 97 93 255 
-0.76793064327 0.117412386825 -6.73211689966 109 111 107 255 
-0.763298636715 0.117412386825 -6.72999131482 109 112 110 255 
-0.758666630159 0.117412386825 -6.72786572998 95 98 95 255 
-0.754034623604 0.117412386825 -6.72574014514 106 109 107 255 
-0.749402617048 0.117412386825 -6.7236145603 98 102 99 255 
-0.744770610493 0.117412386825 -6.72148897546 115 119 117 255 
-0.740138603937 0.117412386825 -6.71936339062 132 138 137 255 
-0.735506597381 0.117412386825 -6.71723780578 129 133 132 255 
-0.730874590826 0.117412386825 -6.71511222094 141 145 145 255 
-0.72624258427 0.117412386825 -6.71298663611 147 151 152 255 
-0.721610577715 0.117412386825 -6.71086105127 148 153 153 255 
-0.716978571159 0.117412386825 -6.70873546643 143 147 148 255 
-0.712346564603 0.117412386825 -6.70660988159 143 147 148 255 
-0.707714558048 0.117412386825 -6.70448429675 147 151 151 255 
-0.703082551492 0.117412386825 -6.70235871191 154 161 161 255 
-0.698450544937 0.117412386825 -6.70023312707 144 150 148 255 
-0.693818538381 0.117412386825 -6.69810754223 152 159 159 255 
-0.689186531825 0.117412386825 -6.69598195739 146 153 156 255 
-0.68455452527 0.117412386825 -6.69385637255 141 148 150 255 
-0.679922518714 0.117412386825 -6.69173078771 165 174 182 255 
-0.675290512159 0.117412386825 -6.68960520287 171 181 191 255 
-0.670658505603 0.117412386825 -6.68747961804 171 181 191 255 
-0.666026499047 0.117412386825 -6.6853540332 164 171 182 255 
-0.661394492492 0.117412386825 -6.68322844836 152 154 159 255 
-0.656762485936 0.117412386825 -6.68110286352 154 157 162 255 
-0.652130479381 0.117412386825 -6.67897727868 159 163 165 255 
-0.647498472825 0.117412386825 -6.67685169384 158 163 165 255 
-0.642866466269 0.117412386825 -6.674726109 165 171 176 255 
-0.638234459714 0.117412386825 -6.67260052416 184 189 194 255 
-0.633602453158 0.117412386825 -6.67047493932 183 187 190 255 
-0.628970446603 0.117412386825 -6.66834935448 187 193 194 255 
-0.624338440047 0.117412386825 -6.66622376964 175 181 181 255 
-0.619706433491 0.117412386825 -6.6640981848 164 171 172 255 
-0.615074426936 0.117412386825 -6.66197259996 165 174 176 255 
-0.61044242038 0.117412386825 -6.65984701513 165 174 176 255 
-0.605810413825 0.117412386825 -6.65772143029 153 160 161 255 
-0.601178407269 0.117412386825 -6.65559584545 173 182 185 255 
-0.596546400713 0.117412386825 -6.65347026061 180 189 193 255 
-0.591914394158 0.117412386825 -6.65134467577 172 180 181 255 
-0.587282387602 0.117412386825 -6.64921909093 168 174 174 255 
-0.582650381047 0.117412386825 -6.64709350609 179 185 189 255 
-0.578018374491 0.117412386825 -6.64496792125 178 184 188 255 
-0.573386367935 0.117412386825 -6.64284233641 174 181 182 255 
-0.56875436138 0.117412386825 -6.64071675157 181 188 192 255 
-0.564122354824 0.117412386825 -6.63859116673 176 182 186 255 
-0.559490348269 0.117412386825 -6.63646558189 156 159 158 255 
-0.554858341713 0.117412386825 -6.63433999706 156 160 158 255 
-0.550226335157 0.117412386825 -6.63221441222 162 168 169 255 
-0.545594328602 0.117412386825 -6.63008882738 155 158 156 255 
-0.540962322046 0.117412386825 -6.62796324254 154 157 156 255 
-0.536330315491 0.117412386825 -6.6258376577 154 159 162 255 
-0.531698308935 0.117412386825 -6.62371207286 154 159 162 255 
-0.52706630238 0.117412386825 -6.62158648802 164 169 174 255 
-0.522434295824 0.117412386825 -6.61946090318 163 168 173 255 
-0.517802289268 0.117412386825 -6.61733531834 164 169 173 255 
-0.513170282713 0.117412386825 -6.6152097335 158 160 167 255 
-0.508538276157 0.117412386825 -6.61308414866 165 168 173 255 
-0.503906269602 0.117412386825 -6.61095856382 164 167 168 255 
-0.499274263046 0.117412386825 -6.60883297898 151 153 151 255 
-0.49464225649 0.117412386825 -6.60670739415 149 152 150 255 
-0.490010249935 0.117412386825 -6.60458180931 123 123 117 255 
-0.485378243379 0.117412386825 -6.60245622447 90 88 78 255 
-0.480746236824 0.117412386825 -6.60033063963 72 69 60 255 
-0.476114230268 0.117412386825 -6.59820505479 67 63 56 255 
-0.471482223712 0.117412386825 -6.59607946995 93 88 85 255 
-0.466850217157 0.117412386825 -6.59395388511 95 90 87 255 
-0.462218210601 0.117412386825 -6.59182830027 94 92 86 255 
-0.457586204046 0.117412386825 -6.58970271543 90 87 81 255 
-0.45295419749 0.117412386825 -6.58757713059 97 93 86 255 
-0.448322190934 0.117412386825 -6.58545154575 117 113 107 255 
-0.443690184379 0.117412386825 -6.58332596091 118 112 106 255 
-0.439058177823 0.117412386825 -6.58120037608 121 115 110 255 
-0.434426171268 0.117412386825 -6.57907479124 139 132 126 255 
-0.429794164712 0.117412386825 -6.5769492064 141 137 133 255 
-0.425162158156 0.117412386825 -6.57482362156 137 132 128 255 
-0.420530151601 0.117412386825 -6.57269803672 156 150 144 255 
-0.415898145045 0.117412386825 -6.57057245188 152 147 141 255 
-0.41126613849 0.117412386825 -6.56844686704 136 129 124 255 
-0.406634131934 0.117412386825 -6.5663212822 134 128 124 255 
-0.402002125378 0.117412386825 -6.56419569736 135 128 121 255 
-0.397370118823 0.117412386825 -6.56207011252 140 135 129 255 
-0.392738112267 0.117412386825 -6.55994452768 131 126 123 255 
-0.388106105712 0.117412386825 -6.55781894284 130 125 122 255 
-0.383474099156 0.117412386825 -6.555693358 120 115 111 255 
-0.3788420926 0.117412386825 -6.55356777317 121 116 112 255 
-0.374210086045 0.117412386825 -6.55144218833 116 112 107 255 
-0.369578079489 0.117412386825 -6.54931660349 97 95 92 255 
-0.364946072934 0.117412386825 -6.54719101865 106 104 104 255 
-0.360314066378 0.117412386825 -6.54506543381 98 97 99 255 
-0.355682059822 0.117412386825 -6.54293984897 88 87 86 255 
-0.351050053267 0.117412386825 -6.54081426413 84 83 81 255 
-0.346418046711 0.117412386825 -6.53868867929 142 142 136 255 
-0.341786040156 0.117412386825 -6.53656309445 176 172 162 255 
-0.3371540336 0.117412386825 -6.53443750961 163 161 154 255 
-0.332522027044 0.117412386825 -6.53231192477 158 157 150 255 
-0.327890020489 0.117412386825 -6.53018633993 167 167 164 255 
-0.323258013933 0.117412386825 -6.52806075509 171 172 171 255 
-0.318626007378 0.117412386825 -6.52593517026 171 171 166 255 
-0.313994000822 0.117412386825 -6.52380958542 136 139 146 255 
-0.309361994267 0.117412386825 -6.52168400058 145 149 154 255 
-0.99953097105 0.121206641797 -6.83843552824 73 74 73 255 
-0.994898964495 0.121206641797 -6.8363099434 70 71 71 255 
-0.990266957939 0.121206641797 -6.83418435856 70 71 71 255 
-0.985634951383 0.121206641797 -6.83205877372 70 71 71 255 
-0.981002944828 0.121206641797 -6.82993318888 70 71 71 255 
-0.976370938272 0.121206641797 -6.82780760404 70 71 71 255 
-0.971738931717 0.121206641797 -6.8256820192 61 63 63 255 
-0.967106925161 0.121206641797 -6.82355643436 61 63 63 255 
-0.962474918605 0.121206641797 -6.82143084952 61 63 63 255 
-0.95784291205 0.121206641797 -6.81930526468 61 62 63 255 
-0.953210905494 0.121206641797 -6.81717967984 65 66 66 255 
-0.948578898939 0.121206641797 -6.815054095 87 86 81 255 
-0.943946892383 0.121206641797 -6.81292851016 93 91 87 255 
-0.939314885828 0.121206641797 -6.81080292533 93 91 87 255 
-0.934682879272 0.121206641797 -6.80867734049 93 91 87 255 
-0.930050872716 0.121206641797 -6.80655175565 93 91 87 255 
-0.925418866161 0.121206641797 -6.80442617081 93 91 88 255 
-0.920786859605 0.121206641797 -6.80230058597 93 91 88 255 
-0.91615485305 0.121206641797 -6.80017500113 88 88 82 255 
-0.911522846494 0.121206641797 -6.79804941629 91 92 84 255 
-0.906890839938 0.121206641797 -6.79592383145 86 86 80 255 
-0.902258833383 0.121206641797 -6.79379824661 96 95 92 255 
-0.897626826827 0.121206641797 -6.79167266177 96 95 92 255 
-0.892994820272 0.121206641797 -6.78954707693 88 88 80 255 
-0.888362813716 0.121206641797 -6.78742149209 84 83 73 255 
-0.88373080716 0.121206641797 -6.78529590726 119 118 116 255 
-0.879098800605 0.121206641797 -6.78317032242 126 126 124 255 
-0.874466794049 0.121206641797 -6.78104473758 126 126 124 255 
-0.869834787494 0.121206641797 -6.77891915274 126 126 124 255 
-0.865202780938 0.121206641797 -6.7767935679 126 126 124 255 
-0.860570774382 0.121206641797 -6.77466798306 111 112 111 255 
-0.855938767827 0.121206641797 -6.77254239822 111 112 111 255 
-0.851306761271 0.121206641797 -6.77041681338 104 106 102 255 
-0.846674754716 0.121206641797 -6.76829122854 104 106 102 255 
-0.84204274816 0.121206641797 -6.7661656437 109 110 108 255 
-0.837410741604 0.121206641797 -6.76404005886 128 127 128 255 
-0.832778735049 0.121206641797 -6.76191447402 105 107 102 255 
-0.828146728493 0.121206641797 -6.75978888918 99 100 96 255 
-0.823514721938 0.121206641797 -6.75766330435 85 87 82 255 
-0.818882715382 0.121206641797 -6.75553771951 107 108 104 255 
-0.814250708826 0.121206641797 -6.75341213467 106 107 103 255 
-0.809618702271 0.121206641797 -6.75128654983 107 108 104 255 
-0.804986695715 0.121206641797 -6.74916096499 105 107 104 255 
-0.80035468916 0.121206641797 -6.74703538015 120 123 121 255 
-0.795722682604 0.121206641797 -6.74490979531 123 125 125 255 
-0.791090676048 0.121206641797 -6.74278421047 126 128 124 255 
-0.786458669493 0.121206641797 -6.74065862563 131 133 127 255 
-0.781826662937 0.121206641797 -6.73853304079 147 149 143 255 
-0.777194656382 0.121206641797 -6.73640745595 132 135 129 255 
-0.772562649826 0.121206641797 -6.73428187111 110 113 109 255 
-0.76793064327 0.121206641797 -6.73215628628 113 116 111 255 
-0.763298636715 0.121206641797 -6.73003070144 124 128 125 255 
-0.758666630159 0.121206641797 -6.7279051166 126 130 127 255 
-0.754034623604 0.121206641797 -6.72577953176 125 128 126 255 
-0.749402617048 0.121206641797 -6.72365394692 144 148 147 255 
-0.744770610493 0.121206641797 -6.72152836208 146 151 150 255 
-0.740138603937 0.121206641797 -6.71940277724 147 151 152 255 
-0.735506597381 0.121206641797 -6.7172771924 145 149 147 255 
-0.730874590826 0.121206641797 -6.71515160756 149 153 154 255 
-0.72624258427 0.121206641797 -6.71302602272 150 154 155 255 
-0.721610577715 0.121206641797 -6.71090043788 148 152 153 255 
-0.716978571159 0.121206641797 -6.70877485304 149 154 156 255 
-0.712346564603 0.121206641797 -6.7066492682 147 152 153 255 
-0.707714558048 0.121206641797 -6.70452368337 147 151 151 255 
-0.703082551492 0.121206641797 -6.70239809853 154 159 159 255 
-0.698450544937 0.121206641797 -6.70027251369 154 161 161 255 
-0.693818538381 0.121206641797 -6.69814692885 162 170 173 255 
-0.689186531825 0.121206641797 -6.69602134401 160 165 172 255 
-0.68455452527 0.121206641797 -6.69389575917 153 157 165 255 
-0.679922518714 0.121206641797 -6.69177017433 153 159 167 255 
-0.675290512159 0.121206641797 -6.68964458949 171 181 191 255 
-0.670658505603 0.121206641797 -6.68751900465 177 188 201 255 
-0.666026499047 0.121206641797 -6.68539341981 168 176 186 255 
-0.661394492492 0.121206641797 -6.68326783497 152 154 159 255 
-0.656762485936 0.121206641797 -6.68114225013 152 154 159 255 
-0.652130479381 0.121206641797 -6.67901666529 162 167 170 255 
-0.647498472825 0.121206641797 -6.67689108046 158 163 165 255 
-0.642866466269 0.121206641797 -6.67476549562 160 165 170 255 
-0.638234459714 0.121206641797 -6.67263991078 168 174 181 255 
-0.633602453158 0.121206641797 -6.67051432594 183 187 190 255 
-0.628970446603 0.121206641797 -6.6683887411 196 201 204 255 
-0.624338440047 0.121206641797 -6.66626315626 177 185 187 255 
-0.619706433491 0.121206641797 -6.66413757142 150 158 159 255 
-0.615074426936 0.121206641797 -6.66201198658 165 174 176 255 
-0.61044242038 0.121206641797 -6.65988640174 174 183 189 255 
-0.605810413825 0.121206641797 -6.6577608169 184 194 205 255 
-0.601178407269 0.121206641797 -6.65563523206 183 193 202 255 
-0.596546400713 0.121206641797 -6.65350964722 180 189 195 255 
-0.591914394158 0.121206641797 -6.65138406239 175 181 189 255 
-0.587282387602 0.121206641797 -6.64925847755 180 186 192 255 
-0.582650381047 0.121206641797 -6.64713289271 181 186 192 255 
-0.578018374491 0.121206641797 -6.64500730787 185 192 197 255 
-0.573386367935 0.121206641797 -6.64288172303 180 187 190 255 
-0.56875436138 0.121206641797 -6.64075613819 176 182 184 255 
-0.564122354824 0.121206641797 -6.63863055335 174 180 184 255 
-0.559490348269 0.121206641797 -6.63650496851 161 165 166 255 
-0.554858341713 0.121206641797 -6.63437938367 165 170 171 255 
-0.550226335157 0.121206641797 -6.63225379883 172 177 181 255 
-0.545594328602 0.121206641797 -6.63012821399 158 160 159 255 
-0.540962322046 0.121206641797 -6.62800262915 162 166 164 255 
-0.536330315491 0.121206641797 -6.62587704431 157 161 165 255 
-0.531698308935 0.121206641797 -6.62375145948 156 160 168 255 
-0.52706630238 0.121206641797 -6.62162587464 157 161 169 255 
-0.522434295824 0.121206641797 -6.6195002898 133 133 139 255 
-0.517802289268 0.121206641797 -6.61737470496 145 146 151 255 
-0.513170282713 0.121206641797 -6.61524912012 151 151 158 255 
-0.508538276157 0.121206641797 -6.61312353528 165 168 173 255 
-0.503906269602 0.121206641797 -6.61099795044 149 148 149 255 
-0.499274263046 0.121206641797 -6.6088723656 133 131 129 255 
-0.49464225649 0.121206641797 -6.60674678076 132 133 130 255 
-0.490010249935 0.121206641797 -6.60462119592 130 132 132 255 
-0.485378243379 0.121206641797 -6.60249561108 138 141 141 255 
-0.480746236824 0.121206641797 -6.60037002624 140 142 140 255 
-0.476114230268 0.121206641797 -6.59824444141 87 87 79 255 
-0.471482223712 0.121206641797 -6.59611885657 79 76 69 255 
-0.466850217157 0.121206641797 -6.59399327173 83 79 76 255 
-0.462218210601 0.121206641797 -6.59186768689 94 92 86 255 
-0.457586204046 0.121206641797 -6.58974210205 91 87 82 255 
-0.45295419749 0.121206641797 -6.58761651721 94 90 84 255 
-0.448322190934 0.121206641797 -6.58549093237 108 104 99 255 
-0.443690184379 0.121206641797 -6.58336534753 115 109 104 255 
-0.439058177823 0.121206641797 -6.58123976269 120 114 107 255 
-0.434426171268 0.121206641797 -6.57911417785 141 134 128 255 
-0.429794164712 0.121206641797 -6.57698859301 127 121 116 255 
-0.425162158156 0.121206641797 -6.57486300817 134 128 124 255 
-0.420530151601 0.121206641797 -6.57273742333 140 134 129 255 
-0.415898145045 0.121206641797 -6.5706118385 135 129 124 255 
-0.41126613849 0.121206641797 -6.56848625366 136 130 125 255 
-0.406634131934 0.121206641797 -6.56636066882 144 138 130 255 
-0.402002125378 0.121206641797 -6.56423508398 148 142 134 255 
-0.397370118823 0.121206641797 -6.56210949914 142 137 129 255 
-0.392738112267 0.121206641797 -6.5599839143 128 123 119 255 
-0.388106105712 0.121206641797 -6.55785832946 128 123 118 255 
-0.383474099156 0.121206641797 -6.55573274462 118 113 109 255 
-0.3788420926 0.121206641797 -6.55360715978 114 110 105 255 
-0.374210086045 0.121206641797 -6.55148157494 103 100 96 255 
-0.369578079489 0.121206641797 -6.5493559901 100 98 95 255 
-0.364946072934 0.121206641797 -6.54723040526 95 94 95 255 
-0.360314066378 0.121206641797 -6.54510482043 93 92 94 255 
-0.355682059822 0.121206641797 -6.54297923559 95 94 92 255 
-0.351050053267 0.121206641797 -6.54085365075 133 131 126 255 
-0.346418046711 0.121206641797 -6.53872806591 153 147 140 255 
-0.341786040156 0.121206641797 -6.53660248107 164 160 152 255 
-0.3371540336 0.121206641797 -6.53447689623 169 165 156 255 
-0.332522027044 0.121206641797 -6.53235131139 161 160 154 255 
-0.327890020489 0.121206641797 -6.53022572655 166 166 160 255 
-0.323258013933 0.121206641797 -6.52810014171 172 171 166 255 
-0.318626007378 0.121206641797 -6.52597455687 161 161 151 255 
-0.313994000822 0.121206641797 -6.52384897203 117 122 129 255 
-0.309361994267 0.121206641797 -6.52172338719 128 133 138 255 
-0.99953097105 0.12500089677 -6.83847491485 70 71 71 255 
-0.994898964495 0.12500089677 -6.83634933001 70 71 71 255 
-0.990266957939 0.12500089677 -6.83422374517 70 71 71 255 
-0.985634951383 0.12500089677 -6.83209816033 70 71 71 255 
-0.981002944828 0.12500089677 -6.82997257549 70 71 71 255 
-0.976370938272 0.12500089677 -6.82784699066 69 71 68 255 
-0.971738931717 0.12500089677 -6.82572140582 61 63 63 255 
-0.967106925161 0.12500089677 -6.82359582098 61 63 63 255 
-0.962474918605 0.12500089677 -6.82147023614 61 63 63 255 
-0.95784291205 0.12500089677 -6.8193446513 61 63 63 255 
-0.953210905494 0.12500089677 -6.81721906646 61 63 63 255 
-0.948578898939 0.12500089677 -6.81509348162 78 78 74 255 
-0.943946892383 0.12500089677 -6.81296789678 93 91 87 255 
-0.939314885828 0.12500089677 -6.81084231194 93 91 87 255 
-0.934682879272 0.12500089677 -6.8087167271 93 91 87 255 
-0.930050872716 0.12500089677 -6.80659114226 93 91 87 255 
-0.925418866161 0.12500089677 -6.80446555742 93 91 88 255 
-0.920786859605 0.12500089677 -6.80233997259 93 91 88 255 
-0.91615485305 0.12500089677 -6.80021438775 88 88 82 255 
-0.911522846494 0.12500089677 -6.79808880291 88 88 82 255 
-0.906890839938 0.12500089677 -6.79596321807 86 86 80 255 
-0.902258833383 0.12500089677 -6.79383763323 96 95 92 255 
-0.897626826827 0.12500089677 -6.79171204839 96 95 92 255 
-0.892994820272 0.12500089677 -6.78958646355 88 88 80 255 
-0.888362813716 0.12500089677 -6.78746087871 119 118 116 255 
-0.88373080716 0.12500089677 -6.78533529387 126 125 123 255 
-0.879098800605 0.12500089677 -6.78320970903 126 126 124 255 
-0.874466794049 0.12500089677 -6.78108412419 126 126 124 255 
-0.869834787494 0.12500089677 -6.77895853935 126 126 124 255 
-0.865202780938 0.12500089677 -6.77683295451 126 126 124 255 
-0.860570774382 0.12500089677 -6.77470736968 126 126 124 255 
-0.855938767827 0.12500089677 -6.77258178484 128 130 129 255 
-0.851306761271 0.12500089677 -6.7704562 128 129 129 255 
-0.846674754716 0.12500089677 -6.76833061516 131 132 132 255 
-0.84204274816 0.12500089677 -6.76620503032 127 127 127 255 
-0.837410741604 0.12500089677 -6.76407944548 133 132 135 255 
-0.832778735049 0.12500089677 -6.76195386064 128 127 128 255 
-0.828146728493 0.12500089677 -6.7598282758 111 112 109 255 
-0.823514721938 0.12500089677 -6.75770269096 102 102 99 255 
-0.818882715382 0.12500089677 -6.75557710612 118 118 116 255 
-0.814250708826 0.12500089677 -6.75345152128 117 117 115 255 
-0.809618702271 0.12500089677 -6.75132593644 117 117 114 255 
-0.804986695715 0.12500089677 -6.74920035161 117 118 116 255 
-0.80035468916 0.12500089677 -6.74707476677 134 137 137 255 
-0.795722682604 0.12500089677 -6.74494918193 133 135 135 255 
-0.791090676048 0.12500089677 -6.74282359709 141 143 141 255 
-0.786458669493 0.12500089677 -6.74069801225 150 153 147 255 
-0.781826662937 0.12500089677 -6.73857242741 158 160 155 255 
-0.777194656382 0.12500089677 -6.73644684257 152 155 149 255 
-0.772562649826 0.12500089677 -6.73432125773 127 129 126 255 
-0.76793064327 0.12500089677 -6.73219567289 144 147 145 255 
-0.763298636715 0.12500089677 -6.73007008805 128 132 131 255 
-0.758666630159 0.12500089677 -6.72794450321 137 139 139 255 
-0.754034623604 0.12500089677 -6.72581891837 138 142 141 255 
-0.749402617048 0.12500089677 -6.72369333353 145 149 154 255 
-0.744770610493 0.12500089677 -6.7215677487 145 149 150 255 
-0.740138603937 0.12500089677 -6.71944216386 147 151 152 255 
-0.735506597381 0.12500089677 -6.71731657902 149 152 155 255 
-0.730874590826 0.12500089677 -6.71519099418 158 163 167 255 
-0.72624258427 0.12500089677 -6.71306540934 149 153 155 255 
-0.721610577715 0.12500089677 -6.7109398245 153 157 160 255 
-0.716978571159 0.12500089677 -6.70881423966 154 157 161 255 
-0.712346564603 0.12500089677 -6.70668865482 152 156 160 255 
-0.707714558048 0.12500089677 -6.70456306998 155 160 161 255 
-0.703082551492 0.12500089677 -6.70243748514 158 163 164 255 
-0.698450544937 0.12500089677 -6.7003119003 161 167 171 255 
-0.693818538381 0.12500089677 -6.69818631546 165 172 178 255 
-0.689186531825 0.12500089677 -6.69606073063 155 159 169 255 
-0.68455452527 0.12500089677 -6.69393514579 156 161 172 255 
-0.679922518714 0.12500089677 -6.69180956095 147 150 160 255 
-0.675290512159 0.12500089677 -6.68968397611 151 154 163 255 
-0.670658505603 0.12500089677 -6.68755839127 172 181 193 255 
-0.666026499047 0.12500089677 -6.68543280643 150 151 159 255 
-0.661394492492 0.12500089677 -6.68330722159 149 149 156 255 
-0.656762485936 0.12500089677 -6.68118163675 162 166 170 255 
-0.652130479381 0.12500089677 -6.67905605191 162 167 170 255 
-0.647498472825 0.12500089677 -6.67693046707 153 156 160 255 
-0.642866466269 0.12500089677 -6.67480488223 159 163 170 255 
-0.638234459714 0.12500089677 -6.67267929739 168 174 181 255 
-0.633602453158 0.12500089677 -6.67055371255 183 186 189 255 
-0.628970446603 0.12500089677 -6.66842812772 196 201 204 255 
-0.624338440047 0.12500089677 -6.66630254288 170 176 177 255 
-0.619706433491 0.12500089677 -6.66417695804 146 151 147 255 
-0.615074426936 0.12500089677 -6.6620513732 136 143 141 255 
-0.61044242038 0.12500089677 -6.65992578836 180 189 201 255 
-0.605810413825 0.12500089677 -6.65780020352 181 190 202 255 
-0.601178407269 0.12500089677 -6.65567461868 172 180 190 255 
-0.596546400713 0.12500089677 -6.65354903384 167 173 184 255 
-0.591914394158 0.12500089677 -6.651423449 175 181 189 255 
-0.587282387602 0.12500089677 -6.64929786416 150 151 159 255 
-0.582650381047 0.12500089677 -6.64717227932 164 165 171 255 
-0.578018374491 0.12500089677 -6.64504669448 185 191 198 255 
-0.573386367935 0.12500089677 -6.64292110964 182 188 193 255 
-0.56875436138 0.12500089677 -6.64079552481 169 174 176 255 
-0.564122354824 0.12500089677 -6.63866993997 163 167 169 255 
-0.559490348269 0.12500089677 -6.63654435513 161 164 165 255 
-0.554858341713 0.12500089677 -6.63441877029 172 175 176 255 
-0.550226335157 0.12500089677 -6.63229318545 166 168 170 255 
-0.545594328602 0.12500089677 -6.63016760061 147 147 148 255 
-0.540962322046 0.12500089677 -6.62804201577 164 167 171 255 
-0.536330315491 0.12500089677 -6.62591643093 136 135 144 255 
-0.531698308935 0.12500089677 -6.62379084609 129 129 142 255 
-0.52706630238 0.12500089677 -6.62166526125 125 123 130 255 
-0.522434295824 0.12500089677 -6.61953967641 133 133 139 255 
-0.517802289268 0.12500089677 -6.61741409157 134 131 138 255 
-0.513170282713 0.12500089677 -6.61528850674 131 127 133 255 
-0.508538276157 0.12500089677 -6.6131629219 129 126 127 255 
-0.503906269602 0.12500089677 -6.61103733706 139 136 137 255 
-0.499274263046 0.12500089677 -6.60891175222 130 128 126 255 
-0.49464225649 0.12500089677 -6.60678616738 132 133 130 255 
-0.490010249935 0.12500089677 -6.60466058254 130 132 132 255 
-0.485378243379 0.12500089677 -6.6025349977 153 157 158 255 
-0.480746236824 0.12500089677 -6.60040941286 153 157 158 255 
-0.476114230268 0.12500089677 -6.59828382802 158 165 164 255 
-0.471482223712 0.12500089677 -6.59615824318 129 133 128 255 
-0.466850217157 0.12500089677 -6.59403265834 82 79 70 255 
-0.462218210601 0.12500089677 -6.5919070735 76 72 67 255 
-0.457586204046 0.12500089677 -6.58978148866 91 86 82 255 
-0.45295419749 0.12500089677 -6.58765590383 98 93 88 255 
-0.448322190934 0.12500089677 -6.58553031899 110 106 101 255 
-0.443690184379 0.12500089677 -6.58340473415 109 104 98 255 
-0.439058177823 0.12500089677 -6.58127914931 101 97 92 255 
-0.434426171268 0.12500089677 -6.57915356447 129 123 117 255 
-0.429794164712 0.12500089677 -6.57702797963 122 116 110 255 
-0.425162158156 0.12500089677 -6.57490239479 139 133 128 255 
-0.420530151601 0.12500089677 -6.57277680995 135 129 124 255 
-0.415898145045 0.12500089677 -6.57065122511 132 126 121 255 
-0.41126613849 0.12500089677 -6.56852564027 140 133 129 255 
-0.406634131934 0.12500089677 -6.56640005543 151 146 139 255 
-0.402002125378 0.12500089677 -6.56427447059 149 143 135 255 
-0.397370118823 0.12500089677 -6.56214888576 140 134 127 255 
-0.392738112267 0.12500089677 -6.56002330092 124 118 113 255 
-0.388106105712 0.12500089677 -6.55789771608 121 117 112 255 
-0.383474099156 0.12500089677 -6.55577213124 109 106 102 255 
-0.3788420926 0.12500089677 -6.5536465464 92 90 88 255 
-0.374210086045 0.12500089677 -6.55152096156 83 82 79 255 
-0.369578079489 0.12500089677 -6.54939537672 89 87 85 255 
-0.364946072934 0.12500089677 -6.54726979188 92 91 92 255 
-0.360314066378 0.12500089677 -6.54514420704 89 89 90 255 
-0.355682059822 0.12500089677 -6.5430186222 132 132 127 255 
-0.351050053267 0.12500089677 -6.54089303736 146 145 138 255 
-0.346418046711 0.12500089677 -6.53876745252 153 147 140 255 
-0.341786040156 0.12500089677 -6.53664186768 159 154 148 255 
-0.3371540336 0.12500089677 -6.53451628285 160 154 148 255 
-0.332522027044 0.12500089677 -6.53239069801 166 165 162 255 
-0.327890020489 0.12500089677 -6.53026511317 170 169 165 255 
-0.323258013933 0.12500089677 -6.52813952833 167 166 161 255 
-0.318626007378 0.12500089677 -6.52601394349 166 166 160 255 
-0.313994000822 0.12500089677 -6.52388835865 66 69 68 255 
-0.309361994267 0.12500089677 -6.52176277381 68 75 75 255 
-0.99953097105 0.128795151743 -6.83851430147 70 71 71 255 
-0.994898964495 0.128795151743 -6.83638871663 70 71 71 255 
-0.990266957939 0.128795151743 -6.83426313179 70 71 71 255 
-0.985634951383 0.128795151743 -6.83213754695 70 71 71 255 
-0.981002944828 0.128795151743 -6.83001196211 70 71 71 255 
-0.976370938272 0.128795151743 -6.82788637727 69 71 68 255 
-0.971738931717 0.128795151743 -6.82576079243 69 71 68 255 
-0.967106925161 0.128795151743 -6.82363520759 61 63 63 255 
-0.962474918605 0.128795151743 -6.82150962275 61 63 63 255 
-0.95784291205 0.128795151743 -6.81938403792 61 63 63 255 
-0.953210905494 0.128795151743 -6.81725845308 61 63 63 255 
-0.948578898939 0.128795151743 -6.81513286824 78 78 74 255 
-0.943946892383 0.128795151743 -6.8130072834 93 91 87 255 
-0.939314885828 0.128795151743 -6.81088169856 93 91 87 255 
-0.934682879272 0.128795151743 -6.80875611372 93 91 87 255 
-0.930050872716 0.128795151743 -6.80663052888 93 91 87 255 
-0.925418866161 0.128795151743 -6.80450494404 93 91 88 255 
-0.920786859605 0.128795151743 -6.8023793592 93 91 88 255 
-0.91615485305 0.128795151743 -6.80025377436 93 91 88 255 
-0.911522846494 0.128795151743 -6.79812818952 88 88 82 255 
-0.906890839938 0.128795151743 -6.79600260468 86 86 80 255 
-0.902258833383 0.128795151743 -6.79387701984 96 95 92 255 
-0.897626826827 0.128795151743 -6.79175143501 96 95 92 255 
-0.892994820272 0.128795151743 -6.78962585017 112 111 108 255 
-0.888362813716 0.128795151743 -6.78750026533 126 125 123 255 
-0.88373080716 0.128795151743 -6.78537468049 133 130 129 255 
-0.879098800605 0.128795151743 -6.78324909565 133 130 129 255 
-0.874466794049 0.128795151743 -6.78112351081 133 130 129 255 
-0.869834787494 0.128795151743 -6.77899792597 134 132 131 255 
-0.865202780938 0.128795151743 -6.77687234113 126 126 124 255 
-0.860570774382 0.128795151743 -6.77474675629 126 126 124 255 
-0.855938767827 0.128795151743 -6.77262117145 128 130 129 255 
-0.851306761271 0.128795151743 -6.77049558661 128 129 129 255 
-0.846674754716 0.128795151743 -6.76837000177 139 140 141 255 
-0.84204274816 0.128795151743 -6.76624441694 133 132 135 255 
-0.837410741604 0.128795151743 -6.7641188321 133 132 135 255 
-0.832778735049 0.128795151743 -6.76199324726 128 127 128 255 
-0.828146728493 0.128795151743 -6.75986766242 116 114 114 255 
-0.823514721938 0.128795151743 -6.75774207758 119 118 117 255 
-0.818882715382 0.128795151743 -6.75561649274 117 116 115 255 
-0.814250708826 0.128795151743 -6.7534909079 117 117 115 255 
-0.809618702271 0.128795151743 -6.75136532306 125 123 123 255 
-0.804986695715 0.128795151743 -6.74923973822 130 131 130 255 
-0.80035468916 0.128795151743 -6.74711415338 133 135 135 255 
-0.795722682604 0.128795151743 -6.74498856854 133 135 135 255 
-0.791090676048 0.128795151743 -6.7428629837 149 152 152 255 
-0.786458669493 0.128795151743 -6.74073739886 155 158 154 255 
-0.781826662937 0.128795151743 -6.73861181403 159 162 158 255 
-0.777194656382 0.128795151743 -6.73648622919 159 162 158 255 
-0.772562649826 0.128795151743 -6.73436064435 147 150 147 255 
-0.76793064327 0.128795151743 -6.73223505951 142 143 145 255 
-0.763298636715 0.128795151743 -6.73010947467 140 143 145 255 
-0.758666630159 0.128795151743 -6.72798388983 140 142 144 255 
-0.754034623604 0.128795151743 -6.72585830499 138 140 147 255 
-0.749402617048 0.128795151743 -6.72373272015 146 150 157 255 
-0.744770610493 0.128795151743 -6.72160713531 146 150 157 255 
-0.740138603937 0.128795151743 -6.71948155047 143 144 150 255 
-0.735506597381 0.128795151743 -6.71735596563 149 150 155 255 
-0.730874590826 0.128795151743 -6.71523038079 154 156 162 255 
-0.72624258427 0.128795151743 -6.71310479596 153 154 158 255 
-0.721610577715 0.128795151743 -6.71097921112 152 154 158 255 
-0.716978571159 0.128795151743 -6.70885362628 154 157 161 255 
-0.712346564603 0.128795151743 -6.70672804144 153 157 160 255 
-0.707714558048 0.128795151743 -6.7046024566 166 172 174 255 
-0.703082551492 0.128795151743 -6.70247687176 165 171 174 255 
-0.698450544937 0.128795151743 -6.70035128692 160 165 170 255 
-0.693818538381 0.128795151743 -6.69822570208 144 146 154 255 
-0.689186531825 0.128795151743 -6.69610011724 150 153 163 255 
-0.68455452527 0.128795151743 -6.6939745324 146 149 157 255 
-0.679922518714 0.128795151743 -6.69184894756 142 144 154 255 
-0.675290512159 0.128795151743 -6.68972336272 149 152 164 255 
-0.670658505603 0.128795151743 -6.68759777788 151 153 164 255 
-0.666026499047 0.128795151743 -6.68547219305 148 149 157 255 
-0.661394492492 0.128795151743 -6.68334660821 149 149 155 255 
-0.656762485936 0.128795151743 -6.68122102337 150 150 156 255 
-0.652130479381 0.128795151743 -6.67909543853 136 136 138 255 
-0.647498472825 0.128795151743 -6.67696985369 150 153 159 255 
-0.642866466269 0.128795151743 -6.67484426885 155 159 166 255 
-0.638234459714 0.128795151743 -6.67271868401 165 170 174 255 
-0.633602453158 0.128795151743 -6.67059309917 167 173 176 255 
-0.628970446603 0.128795151743 -6.66846751433 185 187 185 255 
-0.624338440047 0.128795151743 -6.66634192949 164 164 160 255 
-0.619706433491 0.128795151743 -6.66421634465 146 150 143 255 
-0.615074426936 0.128795151743 -6.66209075981 129 135 134 255 
-0.61044242038 0.128795151743 -6.65996517498 168 177 186 255 
-0.605810413825 0.128795151743 -6.65783959014 175 184 194 255 
-0.601178407269 0.128795151743 -6.6557140053 146 145 149 255 
-0.596546400713 0.128795151743 -6.65358842046 140 140 144 255 
-0.591914394158 0.128795151743 -6.65146283562 139 138 143 255 
-0.587282387602 0.128795151743 -6.64933725078 140 138 145 255 
-0.582650381047 0.128795151743 -6.64721166594 159 158 164 255 
-0.578018374491 0.128795151743 -6.6450860811 178 181 188 255 
-0.573386367935 0.128795151743 -6.64296049626 185 189 195 255 
-0.56875436138 0.128795151743 -6.64083491142 172 174 177 255 
-0.564122354824 0.128795151743 -6.63870932658 153 154 156 255 
-0.559490348269 0.128795151743 -6.63658374174 149 148 149 255 
-0.554858341713 0.128795151743 -6.6344581569 169 170 171 255 
-0.550226335157 0.128795151743 -6.63233257207 152 153 152 255 
-0.545594328602 0.128795151743 -6.63020698723 132 130 131 255 
-0.540962322046 0.128795151743 -6.62808140239 143 141 141 255 
-0.536330315491 0.128795151743 -6.62595581755 121 117 118 255 
-0.531698308935 0.128795151743 -6.62383023271 120 117 129 255 
-0.52706630238 0.128795151743 -6.62170464787 122 119 120 255 
-0.522434295824 0.128795151743 -6.61957906303 120 117 116 255 
-0.517802289268 0.128795151743 -6.61745347819 127 123 123 255 
-0.513170282713 0.128795151743 -6.61532789335 126 121 126 255 
-0.508538276157 0.128795151743 -6.61320230851 124 120 120 255 
-0.503906269602 0.128795151743 -6.61107672367 130 127 126 255 
-0.499274263046 0.128795151743 -6.60895113883 137 138 137 255 
-0.49464225649 0.128795151743 -6.60682555399 126 127 124 255 
-0.490010249935 0.128795151743 -6.60469996916 138 140 142 255 
-0.485378243379 0.128795151743 -6.60257438432 153 157 158 255 
-0.480746236824 0.128795151743 -6.60044879948 160 166 170 255 
-0.476114230268 0.128795151743 -6.59832321464 162 169 174 255 
-0.471482223712 0.128795151743 -6.5961976298 157 165 169 255 
-0.466850217157 0.128795151743 -6.59407204496 120 122 112 255 
-0.462218210601 0.128795151743 -6.59194646012 105 104 98 255 
-0.457586204046 0.128795151743 -6.58982087528 87 83 77 255 
-0.45295419749 0.128795151743 -6.58769529044 86 81 77 255 
-0.448322190934 0.128795151743 -6.5855697056 103 99 96 255 
-0.443690184379 0.128795151743 -6.58344412076 94 91 87 255 
-0.439058177823 0.128795151743 -6.58131853592 96 93 88 255 
-0.434426171268 0.128795151743 -6.57919295109 103 98 93 255 
-0.429794164712 0.128795151743 -6.57706736625 102 97 91 255 
-0.425162158156 0.128795151743 -6.57494178141 122 116 112 255 
-0.420530151601 0.128795151743 -6.57281619657 135 130 126 255 
-0.415898145045 0.128795151743 -6.57069061173 131 126 123 255 
-0.41126613849 0.128795151743 -6.56856502689 145 140 136 255 
-0.406634131934 0.128795151743 -6.56643944205 151 147 143 255 
-0.402002125378 0.128795151743 -6.56431385721 137 132 126 255 
-0.397370118823 0.128795151743 -6.56218827237 133 128 121 255 
-0.392738112267 0.128795151743 -6.56006268753 117 112 107 255 
-0.388106105712 0.128795151743 -6.55793710269 118 114 109 255 
-0.383474099156 0.128795151743 -6.55581151785 97 95 92 255 
-0.3788420926 0.128795151743 -6.55368593301 88 86 83 255 
-0.374210086045 0.128795151743 -6.55156034818 83 82 79 255 
-0.369578079489 0.128795151743 -6.54943476334 84 83 80 255 
-0.364946072934 0.128795151743 -6.5473091785 101 105 103 255 
-0.360314066378 0.128795151743 -6.54518359366 174 186 187 255 
-0.355682059822 0.128795151743 -6.54305800882 156 162 160 255 
-0.351050053267 0.128795151743 -6.54093242398 148 149 144 255 
-0.346418046711 0.128795151743 -6.53880683914 147 143 136 255 
-0.341786040156 0.128795151743 -6.5366812543 143 137 130 255 
-0.3371540336 0.128795151743 -6.53455566946 145 140 134 255 
-0.332522027044 0.128795151743 -6.53243008462 163 162 161 255 
-0.327890020489 0.128795151743 -6.53030449978 148 148 148 255 
-0.323258013933 0.128795151743 -6.52817891494 156 155 154 255 
-0.318626007378 0.128795151743 -6.52605333011 127 126 120 255 
-0.313994000822 0.128795151743 -6.52392774527 68 69 62 255 
-0.309361994267 0.128795151743 -6.52180216043 89 92 93 255 
-0.99953097105 0.132589406715 -6.83855368808 70 71 71 255 
-0.994898964495 0.132589406715 -6.83642810325 70 71 71 255 
-0.990266957939 0.132589406715 -6.83430251841 70 71 71 255 
-0.985634951383 0.132589406715 -6.83217693357 70 71 71 255 
-0.981002944828 0.132589406715 -6.83005134873 69 71 68 255 
-0.976370938272 0.132589406715 -6.82792576389 69 71 68 255 
-0.971738931717 0.132589406715 -6.82580017905 69 71 68 255 
-0.967106925161 0.132589406715 -6.82367459421 61 63 63 255 
-0.962474918605 0.132589406715 -6.82154900937 61 63 63 255 
-0.95784291205 0.132589406715 -6.81942342453 61 63 63 255 
-0.953210905494 0.132589406715 -6.81729783969 61 63 63 255 
-0.948578898939 0.132589406715 -6.81517225485 106 103 95 255 
