ply
format ascii 1.0
element vertex 332
property float x
property float y
property float z
property float nx
property float ny
property float nz
property uchar diffuse_red
property uchar diffuse_green
property uchar diffuse_blue
end_header
-0.150982007384300232 -0.00544296018779277802 -6.52209949493408203 -0.0143355000764131546 -0.0120612001046538353 0.999825000762939453 156 154 149
-0.150977000594139099 -0.00541740981861948967 -6.52210092544555664 -0.0859547033905982971 -0.00241696997545659542 0.9962959885597229 156 154 149
-0.148478999733924866 -0.00554228993132710457 -6.52328681945800781 0.310970991849899292 0.00823559984564781189 0.950384020805358887 205 198 186
-0.145515993237495422 -0.00466668978333473206 -6.52470588684082031 0.412036985158920288 -0.0364005006849765778 0.910440027713775635 211 198 183
-0.138567999005317688 -0.00138057000003755093 -6.52819919586181641 0.627079010009765625 0.0434353016316890717 0.777743995189666748 165 156 139
-0.132834002375602722 0.000653113995213061571 -6.53133201599121094 0.38049200177192688 0.0808899998664855957 0.921239972114562988 203 200 184
-0.130397006869316101 0.00131746998522430658 -6.53273296356201172 0.356608003377914429 0.107528999447822571 0.928044974803924561 179 171 162
-0.125604003667831421 0.000643700012005865574 -6.535675048828125 -0.292032003402709961 -0.0269710998982191086 0.956027984619140625 136 129 128
-0.125430002808570862 -0.000723192992154508829 -6.53583908081054688 -0.260075986385345459 0.0296665001660585403 0.965131998062133789 135 130 128
-0.123106002807617188 0.000702633988112211227 -6.53724956512451172 -0.462202012538909912 0.0267510004341602325 0.886371016502380371 162 160 155
-0.121987000107765198 -0.00154743995517492294 -6.53806161880493164 -0.523819983005523682 0.0655839964747428894 0.849300980567932129 197 192 185
-0.119138002395629883 0.00102493003942072392 -6.53982114791870117 0.575915992259979248 -0.173114001750946045 0.798968970775604248 178 166 155
-0.116039000451564789 0.000147945000207982957 -6.54194545745849609 0.254413008689880371 -0.0657156035304069519 0.964860022068023682 167 167 164
-0.113314002752304077 3.61069010068604257e-06 -6.54383754730224609 0.10152299702167511 -0.020783599466085434 0.99461597204208374 176 177 176
-0.102366000413894653 0.00486834999173879623 -6.55166864395141602 0.512239992618560791 -0.0363259986042976379 0.858074009418487549 207 191 173
-0.099724501371383667 0.00603519007563591003 -6.55366897583007812 0.508549988269805908 -0.0521264001727104187 0.859453022480010986 191 178 161
-0.0922774970531463623 0.00559354014694690704 -6.5597076416015625 0.449083000421524048 -0.0350424014031887054 0.892803013324737549 190 188 181
-0.0840793997049331665 0.00744051020592451096 -6.566650390625 -0.0626175999641418457 -0.24275699257850647 0.968064010143280029 189 185 186
-0.0581814981997013092 0.0233984999358654022 -6.59082651138305664 0.587073028087615967 -0.126537993550300598 0.799583017826080322 167 155 146
-0.0292412005364894867 0.0460414998233318329 -6.62247133255004883 -0.295798987150192261 -0.0438104011118412018 0.95424497127532959 187 163 139
-0.305889010429382324 -0.000267316005192697048 -6.52529430389404297 0.0832758992910385132 0.0577615015208721161 0.994850993156433105 161 161 158
-0.298509985208511353 -0.000650146976113319397 -6.52172088623046875 -0.655309021472930908 0.105829998850822449 0.747910976409912109 149 155 162
-0.295118004083633423 -0.00142343994230031967 -6.52019977569580078 0.296308010816574097 0.17314399778842926 0.939266979694366455 160 166 171
-0.290105998516082764 -0.00300230993889272213 -6.51809167861938477 -0.0407072007656097412 -0.0443430989980697632 0.998187005519866943 202 200 193
-0.289867013692855835 -0.00229225005023181438 -6.51798582077026367 -0.209306001663208008 0.00803816039115190506 0.977816998958587646 204 201 194
-0.288394004106521606 -0.00518553005531430244 -6.51742982864379883 0.487497985363006592 -0.061433400958776474 0.870959997177124023 212 209 199
-0.287804007530212402 -0.00314163998700678349 -6.51716995239257812 0.7159079909324646 -0.124908998608589172 0.686931014060974121 207 203 193
-0.283134013414382935 -0.00477686990052461624 -6.51542139053344727 0.178823992609977722 0.0297126006335020065 0.983431994915008545 183 182 176
-0.280692994594573975 -0.00469599990174174309 -6.51454925537109375 0.261498004198074341 0.0223155003041028976 0.964945971965789795 175 174 171
-0.276672989130020142 -0.00419508013874292374 -6.51318931579589844 0.785664021968841553 0.0104213999584317207 0.618565022945404053 185 183 175
-0.274554014205932617 -0.00318078999407589436 -6.51250171661376953 0.107721000909805298 0.0264777000993490219 0.993829011917114258 161 154 145
-0.274441987276077271 -0.00364859006367623806 -6.51247406005859375 0.559517025947570801 0.128619000315666199 0.818777978420257568 157 149 138
-0.272069990634918213 -0.00285157002508640289 -6.51174402236938477 -0.153731003403663635 -0.0393561013042926788 0.987329006195068359 133 124 118
-0.269739985466003418 -0.00250555993989109993 -6.51106786727905273 0.0417300984263420105 -0.061650499701499939 0.997224986553192139 107 107 108
-0.267453014850616455 -0.00317892991006374359 -6.51045322418212891 -0.0757030993700027466 0.0159367993474006653 0.997003018856048584 67 79 89
-0.264129996299743652 -0.00404054997488856316 -6.50961780548095703 -0.6983489990234375 0.149150997400283813 0.700044989585876465 84 107 125
-0.256947994232177734 -0.00572814978659152985 -6.50804996490478516 -0.771293997764587402 0.0367182008922100067 0.635419011116027832 110 114 121
-0.255360990762710571 -0.00698914984241127968 -6.50776433944702148 -0.177893996238708496 -0.0246616005897521973 0.98374098539352417 127 129 133
-0.254202008247375488 -0.0090086003765463829 -6.50758838653564453 -0.109797000885009766 -0.0679389983415603638 0.99162900447845459 177 178 178
-0.251807987689971924 -0.00922730006277561188 -6.50717496871948242 0.0326315015554428101 -0.0625744014978408813 0.997506976127624512 190 190 187
-0.249484002590179443 -0.00897494982928037643 -6.50679874420166016 0.468832999467849731 0.0819434002041816711 0.879477977752685547 203 205 203
-0.246748998761177063 -0.00792449992150068283 -6.50638341903686523 0.636178016662597656 -0.308167994022369385 0.707325994968414307 191 188 180
-0.243964001536369324 -0.00807981006801128387 -6.50603389739990234 0.326669991016387939 -0.117204003036022186 0.937843024730682373 156 147 137
-0.240990996360778809 -0.00833288021385669708 -6.50571632385253906 0.463663995265960693 0.188710004091262817 0.865680992603302002 135 126 118
-0.231993004679679871 -0.00915814004838466644 -6.50509738922119141 -0.1581449955701828 0.0388883985579013824 0.986649990081787109 91 93 96
-0.230296999216079712 -0.012088799849152565 -6.50510501861572266 0.550302982330322266 -0.074252597987651825 0.831656992435455322 111 109 110
-0.230434000492095947 -0.00875341985374689102 -6.50502872467041016 -0.840149998664855957 0.0731635019183158875 0.537397027015686035 115 119 128
-0.22776399552822113 -0.0103839999064803123 -6.50500297546386719 0.0808017030358314514 0.0204617008566856384 0.996519982814788818 105 104 107
-0.228510007262229919 -0.00970216002315282822 -6.50500011444091797 -0.288311004638671875 -0.220994994044303894 0.931685984134674072 114 113 116
-0.227602005004882812 -0.0087716495618224144 -6.50496101379394531 0.0486068017780780792 0.231791004538536072 0.971551001071929932 116 115 118
-0.22594800591468811 -0.0110159004107117653 -6.50500059127807617 -0.163257002830505371 0.00698608020320534706 0.986558973789215088 115 115 118
-0.223500996828079224 -0.0113811995834112167 -6.50501775741577148 -0.456580013036727905 0.024509800598025322 0.889344990253448486 187 186 183
-0.221925005316734314 -0.0105670997872948647 -6.50502204895019531 0.209078997373580933 0.0820173993706703186 0.974452972412109375 196 194 190
-0.219202995300292969 -0.0110646001994609833 -6.50511503219604492 -0.175403997302055359 0.0220774002373218536 0.984248995780944824 184 184 182
-0.215657994151115417 -0.0125232003629207611 -6.50532865524291992 0.0995121002197265625 0.0597417987883090973 0.993241012096405029 157 163 168
-0.216929003596305847 -0.0113172000274062157 -6.50522470474243164 -0.250304996967315674 0.0088324500247836113 0.968127012252807617 160 165 169
-0.213191002607345581 -0.0124733000993728638 -6.50549554824829102 0.244296997785568237 -0.0375181995332241058 0.968973994255065918 178 183 185
-0.210690006613731384 -0.0138026997447013855 -6.50574254989624023 0.220437005162239075 -0.0309695005416870117 0.974909007549285889 201 199 196
-0.208223998546600342 -0.0139357000589370728 -6.50599241256713867 0.205325007438659668 -0.0233479999005794525 0.978415012359619141 218 214 205
-0.203137993812561035 -0.0120436996221542358 -6.50656414031982422 0.382979989051818848 0.161774992942810059 0.9094809889793396 214 209 196
-0.200580000877380371 -0.0113938003778457642 -6.50692081451416016 0.33184400200843811 0.18523000180721283 0.924969971179962158 209 204 193
-0.195205003023147583 -0.0119054997339844704 -6.50785970687866211 0.0593868009746074677 0.138027995824813843 0.988645970821380615 195 192 185
-0.192714005708694458 -0.0115194004029035568 -6.50833749771118164 -0.144226998090744019 -0.0141618996858596802 0.989443004131317139 176 177 176
-0.190472006797790527 -0.0118559999391436577 -6.50882196426391602 -0.125293001532554626 -0.0413094013929367065 0.991259992122650146 166 169 170
-0.188126996159553528 -0.0117461001500487328 -6.50934791564941406 -0.0740718021988868713 -0.0577301010489463806 0.995580971240997314 180 182 183
-0.186867997050285339 -0.0139480000361800194 -6.50971746444702148 -0.00888771004974842072 0.0417722985148429871 0.999087989330291748 191 192 191
-0.184550002217292786 -0.0138496998697519302 -6.51029062271118164 -0.0281505994498729706 0.0301227997988462448 0.999149978160858154 209 207 201
-0.181895002722740173 -0.014296400360763073 -6.51100730895996094 0.589743971824645996 -0.0423811003565788269 0.806478023529052734 222 219 207
-0.179690003395080566 -0.0124914003536105156 -6.51156330108642578 0.720466971397399902 0.0132844001054763794 0.693361997604370117 221 216 201
-0.175108000636100769 -0.0100160995498299599 -6.51285600662231445 0.415423005819320679 0.0132889999076724052 0.909530997276306152 215 208 198
-0.169635996222496033 -0.00787855964154005051 -6.51459741592407227 0.725480973720550537 -0.0642023980617523193 0.685240983963012695 155 143 133
-0.16371600329875946 -0.00747842993587255478 -6.51675653457641602 0.355507999658584595 0.117274001240730286 0.927286982536315918 209 208 201
-0.159733995795249939 -0.00702012982219457626 -6.5183253288269043 0.391323000192642212 0.0488236993551254272 0.918956995010375977 171 170 164
-0.160567998886108398 -0.00565988989546895027 -6.51793622970581055 0.352409005165100098 0.0144961001351475716 0.935733973979949951 179 178 173
-0.157196000218391418 -0.00666932994499802589 -6.51937437057495117 -0.146024003624916077 0.0445664003491401672 0.988277018070220947 148 143 141
-0.154648005962371826 -0.00690079992637038231 -6.52048969268798828 0.0750935971736907959 -0.0604869984090328217 0.99533998966217041 134 129 128
-0.152164995670318604 -0.00747804995626211166 -6.52162933349609375 -0.0492216013371944427 -0.0244022998958826065 0.998489975929260254 135 132 131
-0.149758994579315186 -0.00770583003759384155 -6.52275800704956055 -0.0172365996986627579 -0.025416199117898941 0.999527990818023682 197 193 185
-0.147026002407073975 -0.0074075101874768734 -6.5240635871887207 0.39502599835395813 -0.0895351991057395935 0.914295971393585205 208 197 183
-0.144136995077133179 -0.00666319020092487335 -6.52547740936279297 0.644958019256591797 -0.302657008171081543 0.701732993125915527 204 195 184
-0.135385006666183472 -0.00202759006060659885 -6.52998256683349609 0.535202980041503906 0.208646997809410095 0.818549990653991699 152 148 134
-0.13136899471282959 -0.000285087007796391845 -6.53222227096557617 -0.131807997822761536 -0.441891998052597046 0.887332022190093994 192 187 178
-0.128073006868362427 -0.000872560020070523024 -6.53421592712402344 -0.106666997075080872 0.0545335002243518829 0.992797970771789551 166 156 153
-0.126434996724128723 -0.00262095010839402676 -6.53529214859008789 -0.202733993530273438 -0.00648250989615917206 0.979211986064910889 138 129 127
-0.124284997582435608 -0.00302953994832932949 -6.53665351867675781 -0.296853989362716675 0.000683218007907271385 0.954922974109649658 143 141 138
-0.11953900009393692 -0.00175456004217267036 -6.53967142105102539 0.53513801097869873 -0.151885002851486206 0.830998003482818604 176 165 154
-0.117407001554965973 -0.00232469988986849785 -6.54112100601196289 0.258184999227523804 -0.0507210008800029755 0.964762985706329346 173 168 160
-0.114687003195285797 -0.00240982999093830585 -6.5429844856262207 0.19356200098991394 -0.0454908013343811035 0.980032980442047119 168 169 169
-0.112071000039577484 -0.00208990997634828091 -6.54480361938476562 0.183773994445800781 -0.0324244983494281769 0.982433974742889404 188 188 185
-0.111891001462936401 -0.0021935200784355402 -6.54493570327758789 -0.0444501005113124847 -0.047959301620721817 0.99786001443862915 190 190 186
-0.100106999278068542 0.00296516995877027512 -6.55350494384765625 0.478816986083984375 0.0619569011032581329 0.875725984573364258 191 176 158
-0.0974219962954521179 0.00397648010402917862 -6.55558443069458008 0.420816004276275635 0.148536995053291321 0.894903004169464111 182 176 166
-0.0937568023800849915 0.00287602003663778305 -6.55860757827758789 0.435871988534927368 0.0200821999460458755 0.89978402853012085 180 178 171
-0.0908439010381698608 0.00261810002848505974 -6.56104278564453125 0.497557997703552246 -0.00567608000710606575 0.867411971092224121 199 196 188
-0.0828080996870994568 0.00531100016087293625 -6.56787729263305664 -0.405333995819091797 0.0878657996654510498 0.909936010837554932 155 151 157
-0.081295497715473175 0.00390804978087544441 -6.56929922103881836 -0.724102973937988281 -0.143636003136634827 0.674569010734558105 164 162 155
-0.0789648965001106262 0.00362243992276489735 -6.57142972946166992 -0.0613442994654178619 -0.219595000147819519 0.97366100549697876 194 186 181
-0.0631161034107208252 0.0170747004449367523 -6.58606052398681641 0.632375001907348633 -0.0620559006929397583 0.772172987461090088 243 230 200
-0.0599987991154193878 0.0208833999931812286 -6.58906269073486328 0.325774997472763062 -0.480123013257980347 0.814463973045349121 218 205 189
-0.0572705008089542389 0.0213016998022794724 -6.59188032150268555 0.615649998188018799 -0.0778063014149665833 0.784169018268585205 160 145 134
-0.30689200758934021 -0.00282915006391704082 -6.52583026885986328 0.113004997372627258 0.0230688005685806274 0.993327021598815918 162 163 158
-0.302823007106781006 -0.00118397001642733812 -6.52377510070800781 -0.608226001262664795 0.0512448996305465698 0.792107999324798584 142 140 138
-0.299302995204925537 -0.00334312999621033669 -6.52211713790893555 -0.695034027099609375 -0.0172915998846292496 0.71876901388168335 154 158 162
-0.300776004791259766 0.000337133998982608318 -6.52277326583862305 -0.412411987781524658 -0.0914362967014312744 0.906396985054016113 137 135 135
-0.299145996570587158 -0.00109242997132241726 -6.52202033996582031 -0.759361028671264648 -0.137983992695808411 0.635869979858398438 160 166 173
-0.296041011810302734 -0.00431512994691729546 -6.52064132690429688 0.150385007262229919 0.0150637002661824226 0.988512992858886719 150 157 162
-0.293141990900039673 -0.00534061016514897346 -6.51938867568969727 0.201603993773460388 -0.00198564003221690655 0.979465007781982422 178 181 182
-0.291857004165649414 -0.00700995977967977524 -6.51886606216430664 -0.13815799355506897 -0.0279562994837760925 0.990015983581542969 190 190 186
-0.290933012962341309 -0.00558680016547441483 -6.5184636116027832 -0.0767495036125183105 -0.0360610000789165497 0.996397972106933594 196 194 189
-0.289707988500595093 -0.0071463598869740963 -6.51798248291015625 0.253190010786056519 -0.068850196897983551 0.964963018894195557 205 203 194
-0.285894989967346191 -0.00505963992327451706 -6.51645469665527344 0.535986006259918213 -0.107621997594833374 0.83733898401260376 207 205 196
-0.276832014322280884 -0.00623591989278793335 -6.51327180862426758 0.296743005514144897 -0.137769997119903564 0.944966971874237061 193 192 185
-0.275801002979278564 -0.00536757009103894234 -6.51292705535888672 0.315061986446380615 0.0547306016087532043 0.947492003440856934 188 184 176
-0.273350000381469727 -0.00518172979354858398 -6.51216316223144531 -0.034181598573923111 0.120967000722885132 0.992067992687225342 140 132 124
-0.273387014865875244 -0.00511799007654190063 -6.51217317581176758 0.0921706035733222961 0.0777204036712646484 0.992704987525939941 141 132 125
-0.271540999412536621 -0.00454286020249128342 -6.51161527633666992 -0.0374412983655929565 -0.0317386984825134277 0.998794972896575928 126 120 115
-0.269161999225616455 -0.00515270000323653221 -6.51094913482666016 0.202148005366325378 -0.30249398946762085 0.93146902322769165 90 92 96
-0.268521010875701904 -0.00460345996543765068 -6.51076412200927734 0.13042999804019928 -0.493782013654708862 0.859749019145965576 76 82 88
-0.265428006649017334 -0.00680135004222393036 -6.50998878479003906 0.128892004489898682 0.222767993807792664 0.966313004493713379 81 87 95
-0.263693004846572876 -0.00930941011756658554 -6.50960397720336914 -0.703734993934631348 -0.456840008497238159 0.544108986854553223 106 111 120
-0.263909995555877686 -0.00962936040014028549 -6.50966262817382812 -0.699425995349884033 -0.443471997976303101 0.560477972030639648 104 108 117
-0.260839998722076416 -0.00698754005134105682 -6.50889778137207031 -0.747382998466491699 -0.426407009363174438 0.509504973888397217 103 107 117
-0.259530007839202881 -0.00772514985874295235 -6.50862360000610352 -0.23840700089931488 0.501338005065917969 0.831758975982666016 102 104 111
-0.257220000028610229 -0.0101391002535820007 -6.50818824768066406 -0.255506008863449097 0.18192000687122345 0.949537992477416992 98 100 105
-0.255344986915588379 -0.0110419997945427895 -6.50784063339233398 -0.256341010332107544 -0.0759050026535987854 0.963600993156433105 141 142 143
-0.253019988536834717 -0.0110857998952269554 -6.50741958618164062 0.0188554991036653519 -0.0937751010060310364 0.995414972305297852 190 190 186
-0.250602006912231445 -0.0114770000800490379 -6.50702476501464844 -0.0862288028001785278 -0.0117146996781229973 0.996205985546112061 189 190 184
-0.247894003987312317 -0.0108131999149918556 -6.50660324096679688 0.621742010116577148 -0.391629010438919067 0.678279995918273926 190 190 183
-0.245526999235153198 -0.0108534004539251328 -6.50628519058227539 0.292825996875762939 0.301993995904922485 0.907221972942352295 178 174 164
-0.242348998785018921 -0.0109126996248960495 -6.50591373443603516 0.349952012300491333 0.298041999340057373 0.888090014457702637 153 145 137
-0.239145994186401367 -0.0110553000122308731 -6.50560522079467773 -0.0194716006517410278 0.0613447986543178558 0.997927010059356689 156 152 148
-0.237875998020172119 -0.00882428046315908432 -6.50544881820678711 0.210847005248069763 0.307493001222610474 0.927896022796630859 114 111 110
-0.236561000347137451 -0.0106682004407048225 -6.50539207458496094 -0.135839998722076416 0.0985139012336730957 0.985821008682250977 155 152 148
-0.231685996055603027 -0.0140442997217178345 -6.50520229339599609 0.107594996690750122 0.176693007349967957 0.978366971015930176 156 153 149
-0.229580998420715332 -0.0133549999445676804 -6.50511550903320312 -0.238723993301391602 0.157526999711990356 0.958225011825561523 154 151 146
-0.227046996355056763 -0.0134963998571038246 -6.50507116317749023 -0.148972004652023315 0.101549997925758362 0.983613014221191406 153 150 148
-0.224693000316619873 -0.0134349996224045753 -6.50506162643432617 -0.379938989877700806 0.0930923968553543091 0.920315027236938477 166 164 159
-0.222404003143310547 -0.0133894002065062523 -6.50508594512939453 -0.13760000467300415 0.148670002818107605 0.979267001152038574 191 189 180
-0.220562994480133057 -0.0129281999543309212 -6.50511837005615234 -0.168705999851226807 0.0671593025326728821 0.983376026153564453 191 191 182
-0.218164995312690735 -0.0134989004582166672 -6.50522279739379883 -0.0180223006755113602 0.0824911966919898987 0.996429026126861572 173 176 174
-0.214451000094413757 -0.0145067004486918449 -6.50546121597290039 0.270392000675201416 -0.0381282009184360504 0.96199500560760498 167 172 176
-0.211956992745399475 -0.0151276998221874237 -6.50566864013671875 0.153000995516777039 0.0192348994314670563 0.988039016723632812 190 191 191
-0.209461003541946411 -0.0167705994099378586 -6.50594568252563477 0.525861024856567383 -0.0768757984042167664 0.847088992595672607 207 204 196
-0.204483002424240112 -0.0143627999350428581 -6.50645065307617188 0.580380022525787354 -0.0713313966989517212 0.811215996742248535 215 210 195
-0.201938003301620483 -0.0140220997855067253 -6.50679397583007812 0.104574002325534821 -0.0857354030013084412 0.99081498384475708 209 205 193
-0.199597999453544617 -0.0141581995412707329 -6.50715875625610352 0.260219007730484009 -0.085217602550983429 0.961781978607177734 205 201 191
-0.197386994957923889 -0.0146223995834589005 -6.50754594802856445 0.33054998517036438 -0.0103101003915071487 0.943732023239135742 201 197 187
-0.194065004587173462 -0.0141815003007650375 -6.50814962387084961 0.0483191013336181641 0.119690999388694763 0.991635024547576904 185 183 177
-0.191481992602348328 -0.0144499996677041054 -6.50868606567382812 -0.0706460997462272644 0.0336902998387813568 0.996932029724121094 160 162 161
-0.189356997609138489 -0.0136991003528237343 -6.50912809371948242 -0.0669263973832130432 -0.0330604985356330872 0.997210025787353516 171 174 175
-0.188199996948242188 -0.0160202998667955399 -6.50946855545043945 -0.276342004537582397 0.019748300313949585 0.960856020450592041 181 184 183
-0.185855001211166382 -0.0157506000250577927 -6.5100245475769043 0.0759977996349334717 -0.00574856996536254883 0.997090995311737061 200 200 197
-0.183244004845619202 -0.0159414000809192657 -6.51070022583007812 0.336194008588790894 -0.036701500415802002 0.941076993942260742 218 215 207
-0.179903000593185425 -0.015625 -6.51160812377929688 0.750328004360198975 -0.0700562968850135803 0.657342970371246338 219 213 198
-0.160742998123168945 -0.00940176006406545639 -6.51799964904785156 0.197589993476867676 0.205904006958007812 0.958415985107421875 192 189 181
-0.158481001853942871 -0.00901686958968639374 -6.51891708374023438 0.347568988800048828 0.107957996428012848 0.931419014930725098 161 157 153
-0.159020006656646729 -0.00816867966204881668 -6.5186614990234375 0.186416998505592346 -0.171143993735313416 0.96745002269744873 174 171 166
-0.15657399594783783 -0.0106549998745322227 -6.51978778839111328 0.566177010536193848 -0.10931599885225296 0.817003011703491211 132 126 122
-0.156256005167961121 -0.00982537027448415756 -6.51989412307739258 -0.0308625996112823486 0.218795999884605408 0.975282013416290283 136 131 132
-0.153356999158859253 -0.00950749032199382782 -6.5211634635925293 0.167898997664451599 -0.170671999454498291 0.970917999744415283 118 113 112
-0.15079200267791748 -0.00943292025476694107 -6.52233791351318359 -0.0543483011424541473 -0.00552194984629750252 0.998507022857666016 164 162 156
-0.148329004645347595 -0.00954977981746196747 -6.52351188659667969 0.0880151018500328064 0.00222585001029074192 0.996116995811462402 219 212 200
-0.136920005083084106 -0.00444304989650845528 -6.52922153472900391 0.546733975410461426 -0.218777000904083252 0.808220028877258301 199 195 182
-0.134926006197929382 -0.00508179981261491776 -6.53036260604858398 0.391279011964797974 -0.341414004564285278 0.854597985744476318 201 199 190
-0.132831007242202759 -0.00264395005069673061 -6.5314640998840332 0.495528995990753174 -0.27488398551940918 0.823948025703430176 178 174 164
-0.132357999682426453 -0.00509647000581026077 -6.53183698654174805 0.35170900821685791 -0.142340004444122314 0.925224006175994873 203 199 192
-0.129794999957084656 -0.0051729101687669754 -6.53335237503051758 0.324903994798660278 -0.0175053998827934265 0.945585012435913086 164 156 151
-0.129420995712280273 -0.00327536999247968197 -6.53349876403808594 0.374273002147674561 0.0823391005396842957 0.923655986785888672 159 150 145
-0.127854004502296448 -0.00533109996467828751 -6.53453159332275391 0.224387004971504211 0.0460956990718841553 0.973408997058868408 156 145 143
-0.125327005982398987 -0.00499239983037114143 -6.53607940673828125 -0.269291996955871582 -0.0850289016962051392 0.959298014640808105 135 131 129
-0.122438997030258179 -0.00442084018141031265 -6.53788995742797852 -0.299358010292053223 -0.158785998821258545 0.940836012363433838 190 186 179
-0.121270999312400818 -0.00652098981663584709 -6.53873538970947266 -0.459434002637863159 -0.0633689984679222107 0.885948002338409424 193 185 177
-0.118768997490406036 -0.00474005984142422676 -6.54030942916870117 0.194216996431350708 -0.0458782017230987549 0.979884982109069824 181 174 164
-0.116077996790409088 -0.00471018999814987183 -6.54212665557861328 0.188177004456520081 -0.0216729007661342621 0.981895983219146729 166 166 165
-0.113375000655651093 -0.00475346995517611504 -6.54400014877319336 0.133903995156288147 -0.0363386012613773346 0.990328013896942139 178 179 178
-0.110921002924442291 -0.00512349978089332581 -6.54575586318969727 0.135601997375488281 -0.0227942001074552536 0.990500986576080322 200 199 193
-0.107380002737045288 -0.00376921007409691811 -6.54827213287353516 0.568857014179229736 0.0111838001757860184 0.822359979152679443 220 215 204
-0.107380002737045288 -0.00376921007409691811 -6.54827213287353516 0.568857014179229736 0.0111838001757860184 0.822359979152679443 220 215 204
-0.107380002737045288 -0.00376921007409691811 -6.54827213287353516 0.568857014179229736 0.0111838001757860184 0.822359979152679443 220 215 204
-0.098476901650428772 -0.000167450998560525477 -6.5549311637878418 0.262522011995315552 0.0821162015199661255 0.961426019668579102 194 186 174
-0.095149897038936615 -9.35478965402580798e-05 -6.55760335922241211 0.443863987922668457 0.00793651025742292404 0.896058976650238037 174 172 165
-0.0922811999917030334 -0.000309591006953269243 -6.55997610092163086 0.255836009979248047 0.0322847999632358551 0.966180980205535889 192 191 185
-0.0854742974042892456 0.00314259994775056839 -6.56562566757202148 0.166270002722740173 0.288237988948822021 0.943013012409210205 215 206 192
-0.0832751989364624023 0.000766531971748918295 -6.56767749786376953 -0.326887995004653931 0.28801301121711731 0.900107026100158691 167 161 162
-0.0806880965828895569 0.00110194995068013668 -6.56998252868652344 -0.767174005508422852 -0.256819009780883789 0.587782979011535645 200 195 182
-0.078089103102684021 0.0013304100139066577 -6.57234477996826172 -0.516629993915557861 -0.175919994711875916 0.837942004203796387 190 184 179
-0.0590673983097076416 0.0179570000618696213 -6.59016847610473633 0.591270029544830322 -0.135634005069732666 0.79498600959777832 181 167 158
-0.30625799298286438 -0.00399950006976723671 -6.52551651000976562 0.197676002979278564 0.120788000524044037 0.972796976566314697 159 160 157
-0.304948985576629639 -0.00172343000303953886 -6.52483320236206055 -0.289775997400283813 0.0266769006848335266 0.956722021102905273 154 155 152
-0.3010140061378479 -0.00229331990703940392 -6.52291297912597656 -0.620881021022796631 0.0471087992191314697 0.782487988471984863 152 152 151
-0.29947999119758606 -0.00398391019552946091 -6.52220678329467773 -0.689769983291625977 0.155327007174491882 0.707171022891998291 171 178 185
-0.299353986978530884 -0.00394375016912817955 -6.52214717864990234 -0.739142000675201416 0.111433997750282288 0.664268016815185547 170 178 185
-0.298281013965606689 -0.00869322009384632111 -6.52170515060424805 -0.111222997307777405 0.279062986373901367 0.953809976577758789 144 150 155
-0.298974990844726562 -0.00427566980943083763 -6.52197456359863281 -0.844042003154754639 -0.197392001748085022 0.498627007007598877 166 175 184
-0.295726001262664795 -0.00680514983832836151 -6.52053070068359375 -0.636961996555328369 0.0821219980716705322 0.766507983207702637 156 164 170
-0.293125003576278687 -0.0088971797376871109 -6.51942586898803711 -0.0774148032069206238 0.00988417956978082657 0.996949970722198486 181 184 184
-0.294636011123657227 -0.00879804976284503937 -6.52007627487182617 -0.229112997651100159 0.0191339999437332153 0.973212003707885742 165 171 175
-0.293718993663787842 -0.00819833017885684967 -6.51967144012451172 -0.695841014385223389 0.0233199000358581543 0.717817008495330811 190 195 199
-0.290991991758346558 -0.00964966043829917908 -6.51854085922241211 0.00899714045226573944 0.00865447986871004105 0.999921977519989014 196 195 189
-0.287102997303009033 -0.00740195997059345245 -6.5169520378112793 0.446007996797561646 -0.0854597985744476318 0.890940010547637939 214 212 201
-0.281991004943847656 -0.00815710984170436859 -6.51505756378173828 -0.0841407999396324158 0.0484306998550891876 0.995275974273681641 182 183 181
-0.279444009065628052 -0.0084071597084403038 -6.51417350769042969 0.503606975078582764 0.285948008298873901 0.815237998962402344 174 175 174
-0.274643987417221069 -0.00745879020541906357 -6.51259565353393555 0.0403467006981372833 0.123662002384662628 0.991504013538360596 161 156 148
-0.272065997123718262 -0.00737104006111621857 -6.51181459426879883 -0.0468171983957290649 0.16937999427318573 0.984438002109527588 133 127 123
-0.269690990447998047 -0.0097089400514960289 -6.51117277145385742 -0.185038000345230103 0.528975009918212891 0.828218996524810791 122 120 122
-0.268007993698120117 -0.00775127997621893883 -6.51067781448364258 0.0563455000519752502 0.392334997653961182 0.918094992637634277 104 107 112
-0.26605600118637085 -0.00958462990820407867 -6.51019716262817383 -0.0580867007374763489 0.536083996295928955 0.842163980007171631 113 114 116
-0.260881006717681885 -0.0103455996140837669 -6.50896930694580078 -0.183925002813339233 0.527181029319763184 0.8296089768409729 115 115 121
-0.25915101170539856 -0.0111496997997164726 -6.50860691070556641 -0.0967535972595214844 -0.221507996320724487 0.970346987247467041 114 115 121
-0.256141006946563721 -0.0133007001131772995 -6.50803804397583008 -0.298644006252288818 -0.118320003151893616 0.947001993656158447 150 150 149
-0.254227995872497559 -0.0128415003418922424 -6.50767040252685547 -0.260692000389099121 -0.366820007562637329 0.893019020557403564 160 160 156
-0.25170600414276123 -0.0133827002719044685 -6.50724363327026367 -0.0824835002422332764 0.0299926996231079102 0.996141016483306885 162 161 155
-0.249759003520011902 -0.0141888000071048737 -6.50695037841796875 0.200941994786262512 0.455902010202407837 0.867049992084503174 158 158 151
-0.247241005301475525 -0.0128832999616861343 -6.50655603408813477 0.693579018115997314 -0.283432990312576294 0.662280023097991943 151 149 141
-0.243814006447792053 -0.0133931003510951996 -6.50613260269165039 0.132033005356788635 0.27753901481628418 0.951597988605499268 157 153 146
-0.240406006574630737 -0.0139808002859354019 -6.50578689575195312 0.0454352013766765594 0.474355012178421021 0.87916100025177002 153 149 142
-0.239770993590354919 -0.0141959004104137421 -6.50573301315307617 -0.220002993941307068 0.146656006574630737 0.96441197395324707 159 156 149
-0.236993998289108276 -0.0139718996360898018 -6.50550079345703125 -0.179001003503799438 0.428761988878250122 0.885506987571716309 160 157 151
-0.23571699857711792 -0.0130377002060413361 -6.50539016723632812 -0.287622004747390747 0.325204998254776001 0.900840997695922852 160 157 151
-0.233815997838973999 -0.0159251000732183456 -6.50534772872924805 -0.075016997754573822 -0.0149395996704697609 0.997070014476776123 161 158 151
-0.22821199893951416 -0.0162067990750074387 -6.5051569938659668 0.713616013526916504 0.087046302855014801 0.695107996463775635 152 147 139
-0.22577899694442749 -0.015908900648355484 -6.50512504577636719 0.18081800639629364 0.08531150221824646 0.979809999465942383 160 157 149
-0.223621994256973267 -0.0155718997120857239 -6.50512552261352539 -0.446000993251800537 0.0642518028616905212 0.892723023891448975 166 163 153
-0.221176996827125549 -0.0146749000996351242 -6.50514745712280273 -0.102743998169898987 -0.0986946970224380493 0.989799022674560547 168 166 154
-0.219346001744270325 -0.0154723003506660461 -6.50522756576538086 -0.0632105022668838501 -0.0708388015627861023 0.995482981204986572 166 165 156
-0.218932002782821655 -0.0164451003074645996 -6.50527000427246094 -0.0411450006067752838 -0.101461000740528107 0.993987977504730225 155 154 146
-0.215535998344421387 -0.0171927008777856827 -6.50546503067016602 -0.0445987991988658905 -0.162010997533798218 0.985781013965606689 158 162 165
-0.213213995099067688 -0.0169360991567373276 -6.50561904907226562 -0.0996448993682861328 -0.043603900820016861 0.994067013263702393 180 183 184
-0.21067500114440918 -0.0184968002140522003 -6.50587892532348633 0.0745448991656303406 0.0988921001553535461 0.992302000522613525 201 200 195
-0.205788001418113708 -0.0167235992848873138 -6.50635480880737305 0.648271024227142334 -0.115291997790336609 0.752629995346069336 220 214 200
-0.20340999960899353 -0.0164676997810602188 -6.50665760040283203 0.156203001737594604 -0.178577005863189697 0.971448004245758057 193 188 176
-0.201013997197151184 -0.0166841000318527222 -6.50701284408569336 0.561124026775360107 -0.417760014533996582 0.714574992656707764 184 180 169
-0.198707997798919678 -0.0167771000415086746 -6.5073857307434082 0.245939001441001892 -0.0680195018649101257 0.966895997524261475 182 178 168
-0.196327000856399536 -0.0174224004149436951 -6.50782299041748047 0.319579988718032837 -0.0570999011397361755 0.945837020874023438 179 175 165
-0.19270700216293335 -0.0164237003773450851 -6.50849342346191406 -0.0990035980939865112 0.0900100991129875183 0.991007983684539795 164 163 159
-0.190573006868362427 -0.0161469001322984695 -6.50893640518188477 0.0419908016920089722 0.0316553004086017609 0.99861598014831543 163 164 163
-0.189256995916366577 -0.0178070999681949615 -6.50928401947021484 -0.256902992725372314 0.0424797981977462769 0.96550297737121582 174 176 175
-0.187132000923156738 -0.0183281004428863525 -6.50979804992675781 0.165955007076263428 0.0460879988968372345 0.985055983066558838 191 192 191
-0.184521004557609558 -0.0180510003119707108 -6.51043796539306641 0.210308998823165894 -0.0244661998003721237 0.977329015731811523 211 209 202
-0.17824399471282959 -0.0156028000637888908 -6.51208925247192383 0.683852970600128174 -0.0616253986954689026 0.727012991905212402 204 198 183
-0.175880998373031616 -0.015839599072933197 -6.51281452178955078 0.47810700535774231 0.059937700629234314 0.876254022121429443 196 191 176
-0.169137999415397644 -0.0149870002642273903 -6.51502132415771484 0.479117006063461304 0.281942993402481079 0.83123701810836792 174 164 154
-0.152182996273040771 -0.0135714001953601837 -6.52185201644897461 -0.462512999773025513 0.168279007077217102 0.870495975017547607 142 139 140
-0.152315005660057068 -0.0125826997682452202 -6.52175378799438477 0.211294993758201599 -0.0516632981598377228 0.97605597972869873 124 119 118
-0.14952300488948822 -0.012222999706864357 -6.52304315567016602 0.247341006994247437 -0.0410380996763706207 0.968059003353118896 207 204 196
-0.147165998816490173 -0.0121215004473924637 -6.52417707443237305 0.240492001175880432 -0.0886685997247695923 0.966593027114868164 219 213 204
-0.138696998357772827 -0.00789806991815567017 -6.52838468551635742 0.449867010116577148 -0.420439004898071289 0.78794097900390625 204 198 182
-0.136327996850013733 -0.00749792996793985367 -6.52967166900634766 0.668799996376037598 -0.579309999942779541 0.465947985649108887 201 197 178
-0.133719995617866516 -0.00718801002949476242 -6.53113460540771484 0.333779990673065186 -0.13567100465297699 0.932837009429931641 212 210 197
-0.129207000136375427 -0.00770008983090519905 -6.53380918502807617 0.237139999866485596 0.0228134002536535263 0.971207022666931152 165 156 152
-0.126434996724128723 -0.00705897994339466095 -6.53547573089599609 -0.582502007484436035 -0.153565004467964172 0.79819101095199585 135 127 125
-0.123245999217033386 -0.00626729987561702728 -6.53744983673095703 -0.890748977661132812 -0.0918055996298789978 0.445127010345458984 171 174 170
-0.117430001497268677 -0.00711670005694031715 -6.54131126403808594 0.263195008039474487 -0.0701100975275039673 0.962191998958587646 176 173 167
-0.114491000771522522 -0.00670460984110832214 -6.54330730438232422 -0.0408813990652561188 0.138757005333900452 0.989481985569000244 170 172 172
-0.111813001334667206 -0.00671645998954772949 -6.54518985748291016 0.163130998611450195 -0.0166699998080730438 0.986464023590087891 192 193 189
-0.109609000384807587 -0.00752652017399668694 -6.54680871963500977 0.541159987449645996 0.0294096991419792175 0.840404987335205078 208 205 196
-0.0935669019818305969 -0.00343448994681239128 -6.55905628204345703 -0.140386998653411865 0.0108813000842928886 0.990037024021148682 186 184 177
-0.0845386013388633728 -0.00156016997061669827 -6.56667089462280273 0.429208993911743164 -0.031849101185798645 0.902643978595733643 191 185 184
-0.0793126970529556274 -0.000813628023024648428 -6.57132673263549805 -0.0652443990111351013 -0.154248997569084167 0.98587501049041748 195 187 182
-0.0667020007967948914 0.0123766995966434479 -6.58269596099853516 0.535585999488830566 -0.101305000483989716 0.83838200569152832 172 164 147
-0.0638984963297843933 0.0137964999303221703 -6.58542919158935547 0.634490013122558594 -0.0616378001868724823 0.770470023155212402 235 221 190
-0.0607483983039855957 0.0149619998410344124 -6.58857917785644531 0.636803984642028809 -0.0326872989535331726 0.770332992076873779 219 205 182
-0.0572866983711719513 0.0153050003573298454 -6.59215784072875977 0.612001001834869385 -0.0239174999296665192 0.790495991706848145 156 141 126
-0.0464305989444255829 0.0238978005945682526 -6.603485107421875 0.552209973335266113 -0.0145680997520685196 0.833577990531921387 233 225 198
-0.305552005767822266 -0.00650360994040966034 -6.52518367767333984 -0.0525555983185768127 0.154544994235038757 0.986586987972259521 158 160 158
-0.30378800630569458 -0.0037047599907964468 -6.52427434921264648 -0.135227993130683899 -0.00438574003055691719 0.990804970264434814 147 148 147
-0.297087997198104858 -0.0110972002148628235 -6.52119207382202148 -0.566380023956298828 0.0241503007709980011 0.823791027069091797 146 155 162
-0.295913994312286377 -0.0106995999813079834 -6.52066230773925781 -0.228678002953529358 -0.0447903014719486237 0.972470998764038086 153 161 167
-0.296869009733200073 -0.00890547968447208405 -6.52106618881225586 -0.453108012676239014 0.0597053989768028259 0.889454007148742676 147 155 162
-0.293918013572692871 -0.0103831999003887177 -6.51978540420532227 -0.185596004128456116 0.00484779011458158493 0.982613980770111084 174 179 181
-0.291855007410049438 -0.0102211004123091698 -6.51890707015991211 -0.20757700502872467 -0.0068255402147769928 0.978195011615753174 194 194 190
-0.288194000720977783 -0.0103212995454668999 -6.51741981506347656 0.632050991058349609 0.0468317009508609772 0.773510992527008057 207 204 191
-0.285894989967346191 -0.00979906041175127029 -6.51652050018310547 0.481976985931396484 -0.00288415001705288887 0.876178979873657227 206 204 193
-0.28351101279258728 -0.00977795012295246124 -6.51563024520874023 0.266198992729187012 0.093830302357673645 0.95933997631072998 184 184 176
-0.281174004077911377 -0.0099750300869345665 -6.51479530334472656 -0.0733970031142234802 -0.0261582005769014359 0.996959984302520752 179 180 176
-0.276023000478744507 -0.00958210974931716919 -6.51306390762329102 -0.0119276000186800957 0.144127994775772095 0.989486992359161377 177 175 168
-0.273375988006591797 -0.00961652956902980804 -6.51224231719970703 0.119824998080730438 0.150729000568389893 0.981285989284515381 152 149 143
-0.267771989107131958 -0.0117565998807549477 -6.51068496704101562 -0.132302999496459961 0.45228201150894165 0.882007002830505371 148 149 147
-0.263967990875244141 -0.0118463998660445213 -6.50971746444702148 -0.119961999356746674 0.49047398567199707 0.863160014152526855 147 148 147
-0.263967007398605347 -0.0119433002546429634 -6.50971889495849609 -0.147283002734184265 0.465761005878448486 0.87256699800491333 148 149 147
-0.263727009296417236 -0.011420699767768383 -6.50965118408203125 -0.0443706996738910675 -0.0686307996511459351 0.996654987335205078 148 148 147
-0.263810008764266968 -0.0116924997419118881 -6.50967597961425781 -0.121281996369361877 0.489425003528594971 0.863569974899291992 148 148 147
-0.263669997453689575 -0.0114548001438379288 -6.50963783264160156 -0.132561996579170227 0.194391995668411255 0.971925020217895508 149 149 148
-0.264376014471054077 -0.0128049002960324287 -6.50983476638793945 -0.0986744984984397888 0.507973015308380127 0.855701982975006104 148 148 147
-0.263723999261856079 -0.0115702999755740166 -6.50965309143066406 -0.144707992672920227 0.534606993198394775 0.832619011402130127 145 145 143
-0.263808012008666992 -0.0116889998316764832 -6.50967550277709961 -0.120811998844146729 0.489004999399185181 0.86387401819229126 149 149 148
-0.263756990432739258 -0.011496400460600853 -6.50965976715087891 -0.12234099954366684 0.240273997187614441 0.962965011596679688 147 148 146
-0.264376014471054077 -0.0128049002960324287 -6.50983476638793945 -0.0986744984984397888 0.507973015308380127 0.855701982975006104 148 148 147
-0.263723999261856079 -0.0115702999755740166 -6.50965309143066406 -0.144707992672920227 0.534606993198394775 0.832619011402130127 145 145 143
-0.263808012008666992 -0.0116889998316764832 -6.50967550277709961 -0.120811998844146729 0.489004999399185181 0.86387401819229126 149 149 148
-0.263756990432739258 -0.011496400460600853 -6.50965976715087891 -0.12234099954366684 0.240273997187614441 0.962965011596679688 147 148 146
-0.261756986379623413 -0.0119262002408504486 -6.50919723510742188 -0.0176250003278255463 -0.158225998282432556 0.98724597692489624 151 151 151
-0.261772990226745605 -0.0120000997558236122 -6.50920248031616211 -0.0207857005298137665 -0.150970995426177979 0.988319993019104004 151 151 151
-0.261772006750106812 -0.0120214996859431267 -6.50920248031616211 0.0622886009514331818 -0.135452002286911011 0.988824009895324707 151 151 150
-0.261747002601623535 -0.0119770998135209084 -6.50919580459594727 -0.00952576007694005966 -0.211969003081321716 0.9772300124168396 151 151 150
-0.262748003005981445 -0.0141428001224994659 -6.50946950912475586 0.0298976004123687744 -0.359393000602722168 0.932707011699676514 148 148 146
-0.260049998760223389 -0.0127723002806305885 -6.50883197784423828 -0.158837005496025085 -0.267789989709854126 0.950294017791748047 143 143 142
-0.260033994913101196 -0.0168507006019353867 -6.50890922546386719 0.191449999809265137 0.376744985580444336 0.906316995620727539 151 151 147
-0.259070992469787598 -0.0158552993088960648 -6.5086827278137207 0.114185996353626251 0.0889296978712081909 0.989471018314361572 152 152 148
-0.258235007524490356 -0.0133862001821398735 -6.50845861434936523 -0.152649000287055969 -0.266438990831375122 0.951686978340148926 147 146 147
-0.257070004940032959 -0.0154967000707983971 -6.50826501846313477 -0.279493987560272217 0.0353656001389026642 0.959496021270751953 152 152 148
-0.25494500994682312 -0.0150341996923089027 -6.50784683227539062 -0.450493007898330688 -0.259737998247146606 0.854161977767944336 157 157 153
-0.252882003784179688 -0.0153710003942251205 -6.50748443603515625 -0.718670010566711426 -0.267917007207870483 0.641664981842041016 164 164 159
-0.248280003666877747 -0.0160460993647575378 -6.50677156448364258 0.272208988666534424 0.233616992831230164 0.93344801664352417 162 161 158
-0.245123997330665588 -0.016055399551987648 -6.50634956359863281 0.114936999976634979 0.330298006534576416 0.936852991580963135 158 156 152
-0.241485998034477234 -0.0167891997843980789 -6.50595808029174805 -0.38433501124382019 0.230219006538391113 0.894028007984161377 163 160 155
-0.239205002784729004 -0.0163253005594015121 -6.50573301315307617 -0.235927999019622803 0.0696751028299331665 0.969269990921020508 170 169 162
-0.235774993896484375 -0.0153149999678134918 -6.50544834136962891 -0.533311009407043457 0.291947007179260254 0.793944001197814941 167 164 158
-0.234726995229721069 -0.0187106002122163773 -6.50546741485595703 0.445867985486984253 0.0755065977573394775 0.891907989978790283 163 160 155
-0.233270004391670227 -0.0159977003931999207 -6.50532150268554688 -0.0937042981386184692 0.0491025000810623169 0.994388997554779053 163 159 153
-0.231098994612693787 -0.0153342001140117645 -6.50521230697631836 0.0629860013723373413 -0.419766992330551147 0.905444025993347168 175 173 166
-0.226754993200302124 -0.0184167008846998215 -6.50519561767578125 0.40304100513458252 -0.361665993928909302 0.840687990188598633 163 159 154
-0.220106005668640137 -0.0185928996652364731 -6.50528526306152344 -0.0155988000333309174 -0.135995998978614807 0.990586996078491211 157 155 150
-0.21775500476360321 -0.0182875990867614746 -6.50537347793579102 -0.237676993012428284 -0.421815991401672363 0.874975025653839111 144 146 145
-0.21436600387096405 -0.0191146004945039749 -6.50559663772583008 -0.155936002731323242 -0.0617207996547222137 0.985836982727050781 172 176 178
-0.212116003036499023 -0.0189210996031761169 -6.50576400756835938 -0.128157004714012146 0.00801721028983592987 0.991721987724304199 191 192 191
-0.2093610018491745 -0.0210168007761240005 -6.50608110427856445 0.497004985809326172 -0.00901194009929895401 0.86770099401473999 211 207 199
-0.207031995058059692 -0.0202274993062019348 -6.50631046295166016 0.665753006935119629 -0.148168995976448059 0.731312990188598633 222 215 203
-0.205381006002426147 -0.0196388997137546539 -6.50649261474609375 0.714505970478057861 -0.250755995512008667 0.653147995471954346 218 211 198
-0.204624995589256287 -0.0184665992856025696 -6.50655460357666016 0.641255974769592285 -0.408284991979598999 0.649688005447387695 206 200 187
-0.202818006277084351 -0.0191878005862236023 -6.50682306289672852 0.158507004380226135 -0.134008005261421204 0.978222012519836426 186 181 171
-0.200325995683670044 -0.0190056990832090378 -6.50719165802001953 0.237099006772041321 -0.104055002331733704 0.965897023677825928 183 178 169
-0.197650998830795288 -0.019739300012588501 -6.5076594352722168 0.566955983638763428 -0.517722010612487793 0.640722990036010742 178 174 165
-0.192121997475624084 -0.0195093993097543716 -6.50871419906616211 -0.597535014152526855 -0.101731002330780029 0.795363008975982666 157 157 155
-0.19039599597454071 -0.0204488001763820648 -6.50911617279052734 -0.723857998847961426 -0.0257406998425722122 0.689468979835510254 168 170 170
-0.188346996903419495 -0.0194850992411375046 -6.50954866409301758 0.148884996771812439 -0.0278271995484828949 0.988462984561920166 181 183 183
-0.185872003436088562 -0.0213887002319097519 -6.51020956039428711 0.163296997547149658 0.0372796989977359772 0.985871970653533936 200 199 196
-0.184231996536254883 -0.0219930000603199005 -6.51064682006835938 0.489329993724822998 0.0480634011328220367 0.870773017406463623 211 208 201
-0.183245003223419189 -0.0212370995432138443 -6.5108799934387207 0.54266202449798584 -0.0439926013350486755 0.838797986507415771 218 214 205
-0.179477006196975708 -0.0195010006427764893 -6.51186370849609375 0.666184008121490479 -0.0180124994367361069 0.745570003986358643 204 197 184
-0.177297994494438171 -0.0178401991724967957 -6.51244974136352539 0.493310987949371338 -0.196778997778892517 0.84730297327041626 187 181 169
-0.174937993288040161 -0.0175752006471157074 -6.51317119598388672 0.694163024425506592 -0.0762147009372711182 0.715771019458770752 177 170 157
