ply
format ascii 1.0
element vertex 339
property float x
property float y
property float z
property float nx
property float ny
property float nz
property uchar diffuse_red
property uchar diffuse_green
property uchar diffuse_blue
end_header
-0.346718013286590576 -0.133311003446578979 -6.53781604766845703 -0.709996998310089111 -0.014100000262260437 0.704062998294830322 194 196 195
-0.362379997968673706 -0.126442998647689819 -6.55120754241943359 -0.78054499626159668 0.0529069006443023682 0.622856974601745605 68 68 70
-0.361544996500015259 -0.127436995506286621 -6.55048418045043945 -0.650313019752502441 -0.0743047967553138733 0.756024003028869629 48 49 50
-0.34812501072883606 -0.134554997086524963 -6.53899145126342773 -0.651378989219665527 0.173907995223999023 0.738552987575531006 156 161 166
-0.362585991621017456 -0.128772005438804626 -6.55134773254394531 -0.776623010635375977 0.0713822022080421448 0.625908017158508301 52 52 53
-0.349931001663208008 -0.141784995794296265 -6.54041767120361328 -0.289198011159896851 -0.0386391989886760712 0.956489026546478271 106 109 112
-0.351503998041152954 -0.139514997601509094 -6.54178619384765625 -0.543730020523071289 0.159697994589805603 0.823925971984863281 134 141 145
-0.359046995639801025 -0.139906004071235657 -6.54818105697631836 -0.348158001899719238 -0.162467002868652344 0.923250019550323486 53 56 57
-0.353626012802124023 -0.140244007110595703 -6.54357576370239258 -0.784498989582061768 0.0715828984975814819 0.615984976291656494 147 154 159
-0.328242987394332886 -0.144859999418258667 -6.52196836471557617 -0.762691020965576172 -0.270092010498046875 0.587668001651763916 188 193 199
-0.369455009698867798 -0.135919004678726196 -6.55707168579101562 -0.744475007057189941 -0.247033998370170593 0.620266973972320557 64 64 66
-0.354360014200210571 -0.14188799262046814 -6.5441746711730957 -0.806958019733428955 -0.0267987996339797974 0.59000098705291748 157 164 169
-0.352883994579315186 -0.143020004034042358 -6.54290533065795898 -0.753744006156921387 -0.0690091028809547424 0.653533995151519775 155 164 170
-0.36265099048614502 -0.140668004751205444 -6.55122804641723633 -0.467776000499725342 -0.10125499963760376 0.878027975559234619 47 47 47
-0.339538991451263428 -0.148617997765541077 -6.53149890899658203 -0.369644999504089355 0.151746004819869995 0.916697978973388672 194 194 193
-0.337749987840652466 -0.149088993668556213 -6.52997398376464844 -0.43523898720741272 -0.478745013475418091 0.762476980686187744 185 180 173
-0.376861006021499634 -0.141735002398490906 -6.56327104568481445 -0.124934002757072449 -0.104936003684997559 0.986599981784820557 91 83 75
-0.364293992519378662 -0.14320799708366394 -6.55258512496948242 -0.223910003900527954 -0.0560355000197887421 0.97299802303314209 70 72 72
-0.347759991884231567 -0.152916997671127319 -6.53841209411621094 -0.434448987245559692 0.0289625991135835648 0.900231003761291504 163 161 159
-0.337817996740341187 -0.152744993567466736 -6.52997779846191406 -0.233190998435020447 -0.177968993782997131 0.956007003784179688 184 181 177
-0.377065002918243408 -0.145126998424530029 -6.56339406967163086 -0.221351996064186096 -0.130860000848770142 0.966373980045318604 91 85 76
-0.380477011203765869 -0.14771600067615509 -6.56625175476074219 0.884214997291564941 -0.171002000570297241 0.434652000665664673 122 116 103
-0.36356198787689209 -0.151075005531311035 -6.55184841156005859 -0.634640991687774658 0.238205000758171082 0.735179007053375244 32 35 35
-0.357955992221832275 -0.154927000403404236 -6.54703474044799805 -0.48281899094581604 0.15653499960899353 0.861616015434265137 56 57 60
-0.370687991380691528 -0.158010005950927734 -6.55779361724853516 -0.468107998371124268 0.530027985572814941 0.707068026065826416 52 57 60
-0.36466100811958313 -0.161718994379043579 -6.55262470245361328 -0.333705991506576538 -0.0416582003235816956 0.941756010055541992 130 134 135
-0.371740013360977173 -0.161663994193077087 -6.55863237380981445 -0.328722000122070312 0.579829990863800049 0.745478987693786621 138 139 137
-0.364371985197067261 -0.163895994424819946 -6.55234718322753906 -0.0104510998353362083 0.153400003910064697 0.988108992576599121 155 156 155
-0.355922996997833252 -0.164688006043434143 -6.545166015625 -0.604718029499053955 -0.571135997772216797 0.55508500337600708 158 164 168
-0.318958014249801636 -0.169064998626708984 -6.51373386383056641 -0.174174994230270386 0.67831498384475708 0.713828980922698975 180 186 187
-0.31601598858833313 -0.169023007154464722 -6.51123762130737305 -0.405526012182235718 0.282503992319107056 0.869333028793334961 174 176 175
-0.365119010210037231 -0.165702998638153076 -6.55295467376708984 -0.692220985889434814 0.283077001571655273 0.663850009441375732 177 184 189
-0.350338995456695557 -0.17080099880695343 -6.54033756256103516 -0.817273974418640137 -0.0778006017208099365 0.570972979068756104 163 169 174
-0.366095989942550659 -0.168219000101089478 -6.55374670028686523 -0.336881011724472046 0.578025996685028076 0.743233978748321533 155 158 158
-0.337704986333847046 -0.173447996377944946 -6.52957773208618164 -0.718553006649017334 0.27952200174331665 0.636826992034912109 184 186 186
-0.321846991777420044 -0.173821002244949341 -6.51611518859863281 0.297012001276016235 0.354734987020492554 0.886537015438079834 187 191 194
-0.336697012186050415 -0.174912005662918091 -6.52870082855224609 -0.292199999094009399 0.000151290994836017489 0.956357002258300781 147 143 138
-0.368288993835449219 -0.175733998417854309 -6.55549716949462891 -0.464980006217956543 0.107300996780395508 0.878795027732849121 162 165 166
-0.355789989233016968 -0.176100999116897583 -6.54488515853881836 -0.418953001499176025 0.586093008518218994 0.693521976470947266 146 146 146
-0.355791002511978149 -0.17609800398349762 -6.54488611221313477 -0.419829010963439941 0.585624992847442627 0.693387985229492188 146 146 146
-0.336106985807418823 -0.177211001515388489 -6.52816629409790039 -0.292221009731292725 -0.0614807009696960449 0.954371988773345947 114 109 106
-0.369318991899490356 -0.177529007196426392 -6.55634498596191406 -0.444508999586105347 0.104368999600410461 0.889672994613647461 149 152 154
-0.331501007080078125 -0.180472999811172485 -6.52420997619628906 -0.759968996047973633 0.207460999488830566 0.615960001945495605 100 100 101
-0.37029498815536499 -0.182475000619888306 -6.55710029602050781 -0.27301400899887085 -0.509266972541809082 0.81615602970123291 44 43 39
-0.366086989641189575 -0.182134002447128296 -6.55353450775146484 -0.166420996189117432 -0.789960026741027832 0.590140998363494873 57 57 56
-0.376522988080978394 -0.18291899561882019 -6.56237888336181641 0.614148974418640137 -0.645612001419067383 0.453878998756408691 49 47 44
-0.372049987316131592 -0.183580994606018066 -6.55857324600219727 -0.460451006889343262 -0.672658979892730713 0.579235970973968506 55 52 48
-0.366807997226715088 -0.184014007449150085 -6.55411863327026367 0.50716400146484375 -0.527206003665924072 0.681791007518768311 40 38 35
-0.363519996404647827 -0.183825001120567322 -6.55133152008056641 -0.234178006649017334 -0.799340009689331055 0.553367972373962402 47 47 42
-0.361923009157180786 -0.184137001633644104 -6.54997158050537109 -0.568035006523132324 -0.637534022331237793 0.520467996597290039 49 49 44
-0.380454987287521362 -0.183746993541717529 -6.56570339202880859 0.493966996669769287 -0.646014988422393799 0.581946015357971191 45 44 40
-0.371302008628845215 -0.185286998748779297 -6.55791330337524414 -0.499442994594573975 -0.667506992816925049 0.552259981632232666 70 68 63
-0.359908998012542725 -0.18618600070476532 -6.5482325553894043 -0.6131020188331604 -0.534942984580993652 0.581327974796295166 59 58 54
-0.373160004615783691 -0.185701996088027954 -6.55948400497436523 -0.516524970531463623 0.1486939936876297 0.843262970447540283 73 72 67
-0.36864200234413147 -0.186384007334709167 -6.55564022064208984 -0.413850992918014526 -0.275296002626419067 0.867721021175384521 83 82 77
-0.365922987461090088 -0.187786996364593506 -6.55331230163574219 -0.727262973785400391 -0.473758995532989502 0.496630012989044189 94 94 91
-0.357508003711700439 -0.188479006290435791 -6.54616117477416992 -0.71895599365234375 -0.503422021865844727 0.479238003492355347 72 71 68
-0.379830986261367798 -0.187580004334449768 -6.56511735916137695 -0.5741729736328125 0.153706997632980347 0.804175972938537598 70 68 61
-0.355215996503829956 -0.195242002606391907 -6.54411697387695312 -0.814114987850189209 -0.122277997434139252 0.567683994770050049 82 81 75
-0.356402993202209473 -0.196564003825187683 -6.5451045036315918 -0.811482012271881104 -0.0834169983863830566 0.57839202880859375 91 88 83
-0.382607996463775635 -0.196456000208854675 -6.56734323501586914 -0.491748005151748657 -0.615029990673065186 0.61637800931930542 115 112 107
-0.371614992618560791 -0.202931001782417297 -6.55791997909545898 -0.15246899425983429 0.0160159002989530563 0.988178014755249023 83 82 78
-0.336645007133483887 -0.204248994588851929 -6.52822542190551758 -0.756785988807678223 0.239996001124382019 0.608011007308959961 137 138 138
-0.389191001653671265 -0.201974004507064819 -6.57284879684448242 0.157409995794296265 -0.366373002529144287 0.91705697774887085 83 82 79
-0.385336995124816895 -0.203164994716644287 -6.56956052780151367 -0.399650007486343384 0.142203003168106079 0.90557098388671875 94 94 91
-0.343818992376327515 -0.206471994519233704 -6.53428030014038086 -0.270144999027252197 0.194840997457504272 0.942898988723754883 124 123 119
-0.377644002437591553 -0.206092000007629395 -6.56298923492431641 -0.474756985902786255 -0.321976006031036377 0.819106996059417725 88 88 86
-0.36577799916267395 -0.207315996289253235 -6.5529022216796875 -0.521319985389709473 -0.497880011796951294 0.693066000938415527 83 84 85
-0.365404009819030762 -0.205364003777503967 -6.55261325836181641 -0.567018985748291016 -0.541496992111206055 0.620702028274536133 99 101 101
-0.3668690025806427 -0.205543994903564453 -6.55385398864746094 -0.628575980663299561 -0.505557000637054443 0.591019988059997559 104 105 105
-0.362722009420394897 -0.208128005266189575 -6.55029678344726562 -0.417957007884979248 -0.763629019260406494 0.492121011018753052 89 91 93
-0.388348013162612915 -0.210678994655609131 -6.57200527191162109 -0.646019995212554932 -0.561024010181427002 0.51760101318359375 137 137 135
-0.361268013715744019 -0.21247999370098114 -6.54899930953979492 -0.24280799925327301 0.249133005738258362 0.937538027763366699 65 64 62
-0.360047012567520142 -0.21249699592590332 -6.54796266555786133 -0.490548014640808105 -0.0280466992408037186 0.870962977409362793 62 61 61
-0.359654992818832397 -0.214785993099212646 -6.54759645462036133 -0.586403012275695801 -0.156690999865531921 0.794719994068145752 66 66 63
-0.342110991477966309 -0.217782005667686462 -6.53266477584838867 -0.689447999000549316 0.36725500226020813 0.624328017234802246 141 142 143
-0.34038698673248291 -0.217759996652603149 -6.53120231628417969 -0.701677024364471436 0.352495014667510986 0.619189977645874023 123 123 124
-0.318861991167068481 -0.218960002064704895 -6.51291894912719727 -0.0517272986471652985 -0.539852023124694824 0.840169012546539307 53 48 43
-0.350964009761810303 -0.227578997611999512 -6.54003334045410156 -0.797533988952636719 0.0325972996652126312 0.602392971515655518 136 135 131
-0.319747000932693481 -0.229136005043983459 -6.51352024078369141 -0.837921023368835449 -0.0345935001969337463 0.544694006443023682 111 112 114
-0.358420997858047485 -0.238266006112098694 -6.5462040901184082 -0.729028999805450439 -0.0565654002130031586 0.682142019271850586 113 115 115
-0.358927011489868164 -0.237543001770973206 -6.54664421081542969 -0.75138700008392334 -0.384885996580123901 0.535986006259918213 121 122 121
-0.3422049880027771 -0.23962700366973877 -6.53242349624633789 -0.435139000415802002 -0.0350503996014595032 0.899680972099304199 168 167 166
-0.357241004705429077 -0.242794007062911987 -6.54513645172119141 -0.812546014785766602 -0.039308600127696991 0.581570982933044434 86 94 100
-0.343066006898880005 -0.245943993330001831 -6.53306150436401367 -0.463672012090682983 -0.00710398005321621895 0.885977983474731445 170 168 166
-0.364515990018844604 -0.246553003787994385 -6.5512547492980957 -0.681505024433135986 0.379545003175735474 0.625697016716003418 9 10 9
-0.322769999504089355 -0.248548001050949097 -6.51579999923706055 -0.156497001647949219 0.0344908982515335083 0.987075984477996826 116 117 115
-0.363516002893447876 -0.248796999454498291 -6.55037307739257812 -0.536328017711639404 0.00496874982491135597 0.843994975090026855 9 10 10
-0.344906002283096313 -0.251699000597000122 -6.53453826904296875 -0.278243988752365112 -0.044368501752614975 0.959484994411468506 164 163 162
-0.398968994617462158 -0.221618995070457458 -6.58085727691650391 -0.605035006999969482 0.297030985355377197 0.738717973232269287 8 9 9
-0.325987011194229126 -0.255008995532989502 -6.51843500137329102 -0.805768013000488281 0.176677003502845764 0.565264999866485596 117 116 116
-0.399237990379333496 -0.225202992558479309 -6.58103275299072266 -0.602231025695800781 0.302583009004592896 0.738757014274597168 9 10 9
-0.363178998231887817 -0.254052013158798218 -6.55000972747802734 0.0600253008306026459 -0.181751996278762817 0.98151099681854248 10 12 12
-0.351857990026473999 -0.255050003528594971 -6.54038810729980469 -0.690558016300201416 -0.139705002307891846 0.709656000137329102 150 148 145
-0.348585009574890137 -0.254747003316879272 -6.53761529922485352 -0.350019007921218872 -0.104705996811389923 0.930872976779937744 135 132 128
-0.326655000448226929 -0.257349997758865356 -6.51896762847900391 -0.82084202766418457 0.113696001470088959 0.559724986553192139 138 136 136
-0.32699701189994812 -0.255555987358093262 -6.51928424835205078 0.746240019798278809 -0.071488596498966217 0.661827027797698975 124 121 113
-0.355688005685806274 -0.256087005138397217 -6.54362297058105469 -0.753297984600067139 0.256657987833023071 0.605530977249145508 147 153 159
-0.326927006244659424 -0.259626001119613647 -6.5191650390625 -0.828882992267608643 0.0408377014100551605 0.55792999267578125 146 143 143
-0.344493001699447632 -0.259481996297836304 -6.5340733528137207 -0.44985198974609375 -0.0108021004125475883 0.893037974834442139 168 167 166
-0.326986998319625854 -0.26189500093460083 -6.51918268203735352 -0.834035992622375488 -0.104810997843742371 0.541661977767944336 140 136 135
-0.344604998826980591 -0.262674987316131592 -6.53412151336669922 -0.251904994249343872 -0.0483577996492385864 0.966543018817901611 177 177 177
-0.329649001359939575 -0.263976991176605225 -6.52141094207763672 0.578768014907836914 0.147479996085166931 0.802046000957489014 159 157 148
-0.344644010066986084 -0.265825003385543823 -6.53410816192626953 -0.356705009937286377 -0.138920992612838745 0.923829972743988037 177 178 178
-0.342005014419555664 -0.267455995082855225 -6.5318446159362793 -0.387376993894577026 -0.0415872000157833099 0.920983016490936279 172 173 174
-0.40222400426864624 -0.2458840012550354 -6.58326292037963867 -0.609995007514953613 0.313129991292953491 0.727912008762359619 10 11 11
-0.404958009719848633 -0.247343003749847412 -6.58556127548217773 -0.238582000136375427 0.7183380126953125 0.653505027294158936 14 15 14
-0.401369988918304443 -0.248652994632720947 -6.58249759674072266 -0.594893991947174072 0.187222003936767578 0.781696021556854248 15 16 15
-0.400698006153106689 -0.250620007514953613 -6.58189821243286133 -0.666961014270782471 0.111757002770900726 0.736662983894348145 9 10 9
-0.342415004968643188 -0.271559000015258789 -6.53213262557983398 -0.795759022235870361 -0.25008198618888855 0.551567018032073975 130 135 141
-0.405205994844436646 -0.253226011991500854 -6.58568525314331055 -0.506148993968963623 0.249035999178886414 0.825708985328674316 13 14 13
-0.40201801061630249 -0.253394991159439087 -6.5829777717590332 -0.437640994787216187 -0.0684141963720321655 0.896543025970458984 10 11 10
-0.40156400203704834 -0.252862006425857544 -6.58260011672973633 -0.627058982849121094 0.0274218004196882248 0.778488993644714355 10 10 10
-0.40155598521232605 -0.253827989101409912 -6.58257913589477539 -0.626516997814178467 0.0709267035126686096 0.776172995567321777 10 11 10
-0.401704013347625732 -0.252826005220413208 -6.58271932601928711 -0.617743015289306641 -0.0738596022129058838 0.78290402889251709 10 11 10
-0.401385992765426636 -0.256105989217758179 -6.58240127563476562 -0.673785984516143799 0.0768276005983352661 0.73492199182510376 9 10 10
-0.360035985708236694 -0.274296998977661133 -6.54704523086547852 -0.810238003730773926 -0.0236354991793632507 0.585623979568481445 99 108 117
-0.361755996942520142 -0.277958005666732788 -6.54845094680786133 -0.672761976718902588 -0.0179127994924783707 0.739642024040222168 35 40 46
-0.37000998854637146 -0.284233003854751587 -6.55536270141601562 0.377649992704391479 -0.29928898811340332 0.876245975494384766 52 52 45
-0.364443987607955933 -0.288771986961364746 -6.55057287216186523 -0.662248015403747559 -0.260475009679794312 0.702552974224090576 84 85 83
-0.36171799898147583 -0.289563000202178955 -6.5482478141784668 -0.591493010520935059 0.387753009796142578 0.706954002380371094 104 110 113
-0.385235995054244995 -0.292207986116409302 -6.56816625595092773 -0.639910995960235596 0.462294995784759521 0.613837003707885742 111 108 103
-0.379844009876251221 -0.289398014545440674 -6.56363201141357422 -0.63005298376083374 0.30770498514175415 0.712987005710601807 90 91 90
-0.363534986972808838 -0.293197005987167358 -6.54973649978637695 -0.638979017734527588 0.100740000605583191 0.762598991394042969 89 92 89
-0.365052998065948486 -0.292172014713287354 -6.55103969573974609 -0.793510019779205322 -0.0864645987749099731 0.602383971214294434 88 89 88
-0.352878004312515259 -0.293152004480361938 -6.54069375991821289 -0.761497974395751953 -0.327437013387680054 0.559379994869232178 158 156 153
-0.386651009321212769 -0.29444199800491333 -6.56933403015136719 -0.637695014476776123 0.46518099308013916 0.6139640212059021 110 110 106
-0.385196000337600708 -0.293922007083892822 -6.56810712814331055 -0.745433986186981201 0.249024003744125366 0.618315994739532471 107 105 100
-0.38410601019859314 -0.293267995119094849 -6.56719160079956055 -0.710747003555297852 0.338191002607345581 0.616819977760314941 108 106 101
-0.384790986776351929 -0.295781999826431274 -6.56773614883422852 -0.714110016822814941 0.33330199122428894 0.615594983100891113 115 112 108
-0.365658998489379883 -0.298700988292694092 -6.55145788192749023 -0.4680899977684021 -0.0802612975239753723 0.880028009414672852 94 96 94
-0.388702988624572754 -0.300089985132217407 -6.57099246978759766 0.912338018417358398 -0.146219000220298767 0.382438004016876221 102 99 92
-0.387769013643264771 -0.298072993755340576 -6.57022953033447266 0.92346501350402832 -0.0679223015904426575 0.377624005079269409 99 97 87
-0.391611009836196899 -0.298606991767883301 -6.57348203659057617 0.873349010944366455 -0.1733970046043396 0.455186009407043457 108 102 91
-0.388880014419555664 -0.297563999891281128 -6.57117986679077148 0.833135008811950684 -0.329483002424240112 0.444214999675750732 105 100 90
-0.392495006322860718 -0.300134003162384033 -6.57420969009399414 0.832526981830596924 -0.336869001388549805 0.439792990684509277 110 107 99
-0.405636996030807495 -0.303593993186950684 -6.58531093597412109 0.781619012355804443 -0.0484977997839450836 0.621868014335632324 105 103 97
-0.399448007345199585 -0.302819997072219849 -6.58007049560546875 0.763350009918212891 -0.258978992700576782 0.59179997444152832 105 104 96
-0.39092901349067688 -0.301137000322341919 -6.57286596298217773 0.809607982635498047 -0.384261012077331543 0.443709999322891235 119 112 105
-0.388381004333496094 -0.303052991628646851 -6.57067537307739258 0.666844010353088379 0.492704987525939941 0.559071004390716553 115 112 104
-0.387336999177932739 -0.301517009735107422 -6.56981229782104492 0.747308015823364258 0.345142990350723267 0.567808985710144043 116 115 109
-0.407660990953445435 -0.305126011371612549 -6.587005615234375 0.839585006237030029 -0.0220468994230031967 0.542782008647918701 98 95 90
-0.399340987205505371 -0.305339992046356201 -6.57994222640991211 0.872641026973724365 -0.131446003913879395 0.47034001350402832 101 100 91
-0.393256992101669312 -0.304122000932693481 -6.57479763031005859 0.826967000961303711 -0.407121002674102783 0.387787014245986938 112 108 101
-0.386451005935668945 -0.304657995700836182 -6.56901407241821289 0.839695990085601807 0.28527599573135376 0.462089985609054565 117 115 112
-0.363081991672515869 -0.305314987897872925 -6.54917383193969727 -0.650642991065979004 -0.299014002084732056 0.698036015033721924 101 103 105
-0.405638009309768677 -0.306843996047973633 -6.58526372909545898 0.786574006080627441 -0.147736996412277222 0.599563002586364746 97 97 98
-0.398319005966186523 -0.307197004556655884 -6.57904815673828125 0.920952022075653076 -0.0959360972046852112 0.377680987119674683 109 107 96
-0.365608006715774536 -0.307702988386154175 -6.55128240585327148 -0.140898004174232483 -0.389728009700775146 0.910088002681732178 96 96 95
-0.361075997352600098 -0.307386994361877441 -6.54744148254394531 -0.722343027591705322 -0.02961760014295578 0.690900027751922607 97 107 116
-0.40779799222946167 -0.308135002851486206 -6.58707809448242188 0.838236987590789795 0.0483902990818023682 0.543155014514923096 93 90 88
-0.405663996934890747 -0.309715986251831055 -6.58524370193481445 0.82908099889755249 -0.0106081999838352203 0.559027016162872314 67 67 69
-0.400442987680435181 -0.308503985404968262 -6.58083105087280273 0.826303005218505859 -0.1481190025806427 0.543401002883911133 99 98 90
-0.398671001195907593 -0.308607995510101318 -6.57932567596435547 0.92852097749710083 -0.0404500998556613922 0.369069993495941162 106 104 94
-0.396730989217758179 -0.309318006038665771 -6.57766914367675781 0.819092988967895508 -0.428530007600784302 0.38137701153755188 104 102 92
-0.376527011394500732 -0.307621985673904419 -6.56054925918579102 0.488198012113571167 -0.0351421013474464417 0.872025012969970703 107 110 109
-0.363332003355026245 -0.310108989477157593 -6.54931545257568359 -0.719814002513885498 0.0135156996548175812 0.694036006927490234 105 110 112
-0.361057013273239136 -0.309435993432998657 -6.54739522933959961 -0.648635029792785645 -0.0271389000117778778 0.760616004467010498 97 103 108
-0.410429000854492188 -0.311966001987457275 -6.58925437927246094 0.833594977855682373 -0.0214147008955478668 0.551961004734039307 107 85 27
-0.407389998435974121 -0.311497986316680908 -6.58668231964111328 0.852966010570526123 0.0645786002278327942 0.517956972122192383 99 97 91
-0.400537997484207153 -0.31165701150894165 -6.58086538314819336 0.844573974609375 0.022939000278711319 0.534947991371154785 100 98 90
-0.399780005216598511 -0.310699999332427979 -6.58023643493652344 0.913096010684967041 0.0220570992678403854 0.407148003578186035 99 97 89
-0.399782001972198486 -0.310633987188339233 -6.58023881912231445 0.927621006965637207 -0.00949961971491575241 0.373401999473571777 106 104 95
-0.361290007829666138 -0.311563998460769653 -6.5475616455078125 -0.692441999912261963 0.0588187985122203827 0.71907198429107666 97 107 118
-0.409092992544174194 -0.313091009855270386 -6.5881037712097168 0.821682989597320557 0.177921995520591736 0.5414620041847229 105 92 65
-0.387531012296676636 -0.312110006809234619 -6.56982135772705078 0.590040981769561768 0.0201482009142637253 0.807121992111206055 114 112 106
-0.365400999784469604 -0.314743012189865112 -6.55100345611572266 -0.352266013622283936 -0.0366154983639717102 0.93518298864364624 102 102 99
-0.365390002727508545 -0.314743995666503906 -6.55099391937255859 -0.445951014757156372 -0.057880699634552002 0.893184006214141846 99 101 100
-0.40825200080871582 -0.316385000944137573 -6.5873417854309082 0.924124002456665039 0.0962534993886947632 0.36976999044418335 103 97 86
-0.406778007745742798 -0.314404010772705078 -6.5861201286315918 0.834923028945922852 0.0523308999836444855 0.547873973846435547 100 95 88
-0.400891005992889404 -0.314954996109008789 -6.58111667633056641 0.857185006141662598 0.0343969985842704773 0.513858973979949951 97 95 89
-0.387389004230499268 -0.315766990184783936 -6.56964683532714844 0.813534975051879883 -0.254132986068725586 0.523045003414154053 115 114 107
-0.385464996099472046 -0.314357012510299683 -6.56803512573242188 0.776592016220092773 -0.0884824022650718689 0.623758971691131592 119 118 116
-0.386525988578796387 -0.314278990030288696 -6.56893634796142578 0.48765099048614502 -0.10727199912071228 0.86642301082611084 118 118 114
-0.406132012605667114 -0.317669987678527832 -6.58552408218383789 0.85892099142074585 0.0891207009553909302 0.504293978214263916 104 99 92
-0.406136989593505859 -0.317667007446289062 -6.58552837371826172 0.848679006099700928 0.0978538021445274353 0.519778013229370117 104 99 92
-0.38786199688911438 -0.318417012691497803 -6.57000923156738281 -0.431192994117736816 0.0784510970115661621 0.898841977119445801 115 113 108
-0.385273993015289307 -0.318423986434936523 -6.56781291961669922 -0.251684010028839111 -0.0220496002584695816 0.967558026313781738 120 119 117
-0.3783549964427948 -0.319754987955093384 -6.56192207336425781 -0.186212003231048584 -0.128243997693061829 0.974103987216949463 110 111 110
-0.388783007860183716 -0.320722013711929321 -6.57075691223144531 -0.682253003120422363 0.0885782986879348755 0.725731015205383301 115 113 104
-0.384736001491546631 -0.321678012609481812 -6.56730890274047852 0.611937999725341797 0.0830525010824203491 0.786532998085021973 119 120 116
-0.387059986591339111 -0.323475003242492676 -6.56925439834594727 0.799400985240936279 0.0203686002641916275 0.600453019142150879 114 114 107
-0.384449005126953125 -0.324687004089355469 -6.56702089309692383 0.803752005100250244 0.255136013031005859 0.537482976913452148 119 120 116
-0.377121001482009888 -0.325484007596969604 -6.560791015625 0.0527796000242233276 -0.209414005279541016 0.976401984691619873 107 108 110
-0.380120992660522461 -0.327459990978240967 -6.56330776214599609 0.524755001068115234 0.145116999745368958 0.838792979717254639 105 107 106
-0.364037990570068359 -0.326532989740371704 -6.54967355728149414 -0.676449000835418701 0.106110997498035431 0.728806018829345703 100 102 104
-0.364562004804611206 -0.331447988748550415 -6.55004596710205078 -0.69270402193069458 -0.416985988616943359 0.588459014892578125 97 103 110
-0.363671004772186279 -0.33326798677444458 -6.54926300048828125 -0.747255980968475342 -0.303589999675750732 0.591135978698730469 69 74 82
-0.368070006370544434 -0.337583005428314209 -6.5529322624206543 0.0670839026570320129 0.868090987205505371 0.491851001977920532 106 105 96
-0.366044014692306519 -0.340959995985031128 -6.55116367340087891 0.228199005126953125 0.05387130007147789 0.972123026847839355 90 91 90
-0.364111006259918213 -0.34091600775718689 -6.54952383041381836 0.169643998146057129 -0.355531007051467896 0.919139981269836426 62 62 62
-0.362929999828338623 -0.339684993028640747 -6.54853963851928711 -0.807420015335083008 0.0220138002187013626 0.589567005634307861 59 60 61
-0.329147011041641235 -0.342611014842987061 -6.51982927322387695 -0.813440024852752686 -0.165071994066238403 0.557734012603759766 105 105 105
-0.36375001072883606 -0.345189005136489868 -6.54915475845336914 0.665104985237121582 0.0378370992839336395 0.745791018009185791 65 67 65
-0.32414400577545166 -0.348895996809005737 -6.51549100875854492 0.160264000296592712 -0.0792590007185935974 0.983887016773223877 66 65 61
-0.382723003625869751 -0.352836012840270996 -6.56514263153076172 0.902535021305084229 0.0267523005604743958 0.429783999919891357 80 82 83
-0.35284799337387085 -0.352263987064361572 -6.53979969024658203 -0.369504004716873169 0.601611018180847168 0.708189010620117188 99 108 121
-0.334710001945495605 -0.354726999998092651 -6.52437162399291992 -0.551710009574890137 0.53247600793838501 0.641938984394073486 89 82 75
-0.332522988319396973 -0.354413986206054688 -6.52252054214477539 -0.574979007244110107 -0.207726001739501953 0.791359007358551025 81 75 68
-0.342121005058288574 -0.355455994606018066 -6.53064966201782227 0.777414977550506592 0.470005989074707031 0.417995989322662354 67 65 68
-0.334105014801025391 -0.356047987937927246 -6.52383899688720703 0.395889997482299805 0.469379991292953491 0.789273977279663086 77 72 65
-0.330682992935180664 -0.356543004512786865 -6.52092790603637695 -0.135974004864692688 0.369192987680435181 0.91935199499130249 51 47 41
-0.328132987022399902 -0.356530994176864624 -6.51876401901245117 -0.366903007030487061 0.0670263022184371948 0.927842020988464355 42 42 39
-0.327006012201309204 -0.356507986783981323 -6.51780796051025391 -0.315281987190246582 -0.0440168008208274841 0.947977006435394287 49 48 44
-0.324730992317199707 -0.356537997722625732 -6.51587724685668945 -0.060762699693441391 -0.0796644017100334167 0.994967997074127197 47 45 42
-0.385710000991821289 -0.358837008476257324 -6.56758928298950195 0.170909002423286438 0.877829015254974365 0.447443991899490356 90 87 84
-0.385127007961273193 -0.358747005462646484 -6.56709575653076172 0.163976997137069702 0.858223021030426025 0.486380010843276978 72 71 66
-0.383154988288879395 -0.360379993915557861 -6.56539821624755859 0.123479999601840973 0.885312020778656006 0.448303014039993286 88 86 82
-0.381911993026733398 -0.360401004552841187 -6.56434297561645508 0.0322242006659507751 0.878149986267089844 0.477299004793167114 83 82 77
-0.381911993026733398 -0.360401004552841187 -6.56434297561645508 0.0322242006659507751 0.878149986267089844 0.477299004793167114 83 82 77
-0.379954993724822998 -0.360110014677047729 -6.56268692016601562 0.170186996459960938 0.883560001850128174 0.436300009489059448 73 71 69
-0.373519986867904663 -0.358938008546829224 -6.55724334716796875 0.196538999676704407 0.88127601146697998 0.429796993732452393 65 64 67
-0.371706992387771606 -0.359026014804840088 -6.55570363998413086 0.0990099012851715088 0.883740007877349854 0.457385987043380737 59 61 62
-0.343293994665145874 -0.357854992151260376 -6.53161001205444336 0.797585010528564453 0.437994986772537231 0.414750993251800537 71 66 61
-0.340550005435943604 -0.356985002756118774 -6.52929401397705078 0.842411994934082031 0.33571198582649231 0.421472012996673584 57 51 45
-0.335224002599716187 -0.357335001230239868 -6.52476930618286133 0.875802993774414062 -0.155193999409675598 0.457037985324859619 66 63 59
-0.33382299542427063 -0.35850098729133606 -6.52356338500976562 0.643365025520324707 0.0545556992292404175 0.763612985610961914 74 69 63
-0.38386198878288269 -0.360715001821517944 -6.56599330902099609 0.0273746997117996216 0.837858974933624268 0.545199990272521973 95 89 84
-0.382077991962432861 -0.360406994819641113 -6.5644841194152832 0.117531999945640564 0.885069012641906738 0.450376003980636597 89 87 82
-0.382750988006591797 -0.360518991947174072 -6.56505346298217773 0.0845370963215827942 0.883700013160705566 0.460355997085571289 89 87 82
-0.376594990491867065 -0.359649002552032471 -6.55984210968017578 0.175347000360488892 0.884724020957946777 0.431876003742218018 99 93 89
-0.376594990491867065 -0.359649002552032471 -6.55984210968017578 0.175347000360488892 0.884724020957946777 0.431876003742218018 99 93 89
-0.37585100531578064 -0.360615998506546021 -6.55919694900512695 0.211325004696846008 0.880980014801025391 0.423339009284973145 83 80 77
-0.37585100531578064 -0.360615998506546021 -6.55919694900512695 0.211325004696846008 0.880980014801025391 0.423339009284973145 83 80 77
-0.374695003032684326 -0.361104995012283325 -6.55820846557617188 0.203418001532554626 0.879413008689880371 0.430411010980606079 86 83 80
-0.371708989143371582 -0.360581010580062866 -6.55568265914916992 0.2601889967918396 0.869668006896972656 0.419499009847640991 66 64 61
-0.370467990636825562 -0.360853999853134155 -6.55462551116943359 0.205364003777503967 0.842913985252380371 0.497314989566802979 62 60 56
-0.367567002773284912 -0.360289990901947021 -6.55217170715332031 0.240292996168136597 0.806354999542236328 0.540417015552520752 48 48 47
-0.365400999784469604 -0.360978007316589355 -6.5503239631652832 0.138750001788139343 0.875904977321624756 0.462101995944976807 42 44 39
-0.354440987110137939 -0.35987401008605957 -6.54103946685791016 0.131074994802474976 0.856154024600982666 0.499819010496139526 42 49 56
-0.351516991853713989 -0.359964996576309204 -6.53855705261230469 -0.57385098934173584 0.479503989219665527 0.663905978202819824 59 58 51
-0.329613000154495239 -0.358574002981185913 -6.51998996734619141 -0.5822640061378479 0.116874001920223236 0.804556012153625488 47 45 41
-0.325679004192352295 -0.358716011047363281 -6.51664972305297852 -0.408167004585266113 -0.266712993383407593 0.873076975345611572 52 51 47
-0.323231995105743408 -0.360085010528564453 -6.51455307006835938 0.359948992729187012 -0.74849402904510498 0.556949973106384277 39 40 36
-0.378152012825012207 -0.360853999853134155 -6.56114578247070312 -0.0135808000341057777 0.871158003807067871 0.490815013647079468 104 98 95
-0.378172010183334351 -0.360864013433456421 -6.56116247177124023 -0.0234424006193876266 0.86913597583770752 0.494015991687774658 104 98 95
-0.378172010183334351 -0.360864013433456421 -6.56116247177124023 -0.0234424006193876266 0.86913597583770752 0.494015991687774658 104 98 95
-0.372031986713409424 -0.360666990280151367 -6.55595541000366211 0.217558994889259338 0.850571990013122559 0.478742986917495728 90 85 79
-0.371383011341094971 -0.360998988151550293 -6.55539989471435547 0.0930871963500976562 0.885118007659912109 0.455962002277374268 104 99 94
-0.373842000961303711 -0.361180990934371948 -6.55748367309570312 0.122420996427536011 0.882560014724731445 0.453983008861541748 101 98 92
-0.368716001510620117 -0.36244499683380127 -6.5531153678894043 0.290500998497009277 0.832346022129058838 0.472027003765106201 74 72 64
-0.364632010459899902 -0.361963003873825073 -6.54965686798095703 0.167851001024246216 0.884544014930725098 0.435209989547729492 69 70 66
-0.331589996814727783 -0.361414998769760132 -6.52162599563598633 -0.57409900426864624 0.505915999412536621 0.643784999847412109 61 56 49
-0.329470992088317871 -0.361488014459609985 -6.51982641220092773 -0.143451005220413208 0.358536988496780396 0.922428011894226074 42 41 36
-0.327293992042541504 -0.361831992864608765 -6.5179743766784668 -0.685549020767211914 -0.20829300582408905 0.697592973709106445 43 44 40
-0.370377987623214722 -0.362856000661849976 -6.5545196533203125 0.187521994113922119 0.878484010696411133 0.439433008432388306 93 89 84
-0.363328009843826294 -0.362693995237350464 -6.54853916168212891 -0.0931088998913764954 0.854537010192871094 0.510977029800415039 93 91 82
-0.3334369957447052 -0.362235993146896362 -6.52318096160888672 0.126276999711990356 0.820316970348358154 0.55779498815536499 59 56 49
-0.330348998308181763 -0.363404989242553711 -6.52054357528686523 -0.138325005769729614 0.570563971996307373 0.80952000617980957 67 64 55
-0.330035001039505005 -0.363492995500564575 -6.52027559280395508 0.0701320022344589233 0.877792000770568848 0.473879992961883545 74 72 62
-0.324469000101089478 -0.362529009580612183 -6.51556682586669922 0.10758499801158905 0.886946976184844971 0.449167013168334961 51 52 44
-0.378147006034851074 -0.36441001296043396 -6.56108951568603516 0.717635989189147949 0.492774993181228638 0.492109000682830811 77 72 70
-0.375317990779876709 -0.364540994167327881 -6.55868673324584961 0.596852004528045654 0.631277978420257568 0.495232999324798584 69 68 65
-0.361755996942520142 -0.363393992185592651 -6.5471949577331543 0.263790994882583618 0.819925010204315186 0.508072018623352051 65 61 57
-0.358379989862442017 -0.362928003072738647 -6.54433727264404297 0.246686995029449463 0.852268993854522705 0.461284011602401733 75 71 65
-0.334643006324768066 -0.364457994699478149 -6.52417182922363281 0.0814300030469894409 0.858860015869140625 0.505697011947631836 82 80 71
-0.375299990177154541 0.104410000145435333 -6.56556415557861328 0.0748725011944770813 0.315730005502700806 0.94589000940322876 131 127 125
-0.379685014486312866 0.101865999400615692 -6.56924772262573242 -0.102862000465393066 0.405883997678756714 0.908118009567260742 164 164 160
-0.323045998811721802 0.0767278969287872314 -6.52081537246704102 -0.820460021495819092 -0.48279300332069397 0.306196004152297974 180 183 186
-0.379790991544723511 0.0864498987793922424 -6.56911134719848633 -0.710362017154693604 -0.654429972171783447 0.259050995111465454 90 90 89
-0.335141003131866455 0.0647900998592376709 -6.53090333938598633 -0.79873502254486084 -0.0580535009503364563 0.598875999450683594 115 116 121
-0.381770998239517212 0.0576006993651390076 -6.57036733627319336 -0.749432027339935303 -0.0342724993824958801 0.661194026470184326 163 173 176
-0.364062011241912842 0.0592742003500461578 -6.55536413192749023 -0.696673989295959473 -0.666263997554779053 0.26596599817276001 38 38 35
-0.33896300196647644 0.0452211983501911163 -6.5338592529296875 -0.557437002658843994 0.26863899827003479 0.785555005073547363 172 173 172
-0.330754011869430542 0.0359399989247322083 -6.52675676345825195 -0.120857000350952148 -0.0980722010135650635 0.987814009189605713 198 198 197
-0.35787200927734375 0.0425391010940074921 -6.54986572265625 -0.640639007091522217 -0.0188638009130954742 0.767610013484954834 85 93 106
-0.35233798623085022 0.038590598851442337 -6.54511165618896484 -0.715449988842010498 0.0954950004816055298 0.692107021808624268 104 108 118
-0.390789985656738281 0.0425794981420040131 -6.57779979705810547 -0.780628025531768799 -0.134681999683380127 0.610311985015869141 90 98 111
-0.338070988655090332 0.0201094001531600952 -6.53273296356201172 -0.839164972305297852 -0.231938004493713379 0.491941988468170166 175 176 177
-0.35095098614692688 0.0156990997493267059 -6.54359817504882812 -0.586709976196289062 -0.265756994485855103 0.764946997165679932 66 88 105
-0.3892039954662323 0.0240807998925447464 -6.57618236541748047 -0.643276989459991455 -0.112260997295379639 0.757359027862548828 75 88 105
-0.340837985277175903 0.00582648022100329399 -6.53487110137939453 -0.754571020603179932 0.0706607997417449951 0.652402997016906738 167 174 178
-0.34759598970413208 0.00804140977561473846 -6.54063844680786133 -0.689513027667999268 -0.0655922964215278625 0.721297025680541992 95 105 115
-0.373542994260787964 0.00456849019974470139 -6.56260585784912109 -0.447003990411758423 -0.0108514996245503426 0.894465982913970947 141 138 128
-0.331775009632110596 -0.016965499147772789 -6.52684545516967773 -0.715017020702362061 0.163693994283676147 0.67967301607131958 198 203 207
-0.35594099760055542 -0.00799745041877031326 -6.54748439788818359 -0.737484991550445557 0.0910760983824729919 0.66919398307800293 144 148 151
-0.35723799467086792 -0.00513543002307415009 -6.54862689971923828 -0.581641972064971924 -0.000218257002416066825 0.813444972038269043 133 139 145
-0.363384008407592773 -0.00772095983847975731 -6.55380439758300781 -0.742326021194458008 -0.544111013412475586 0.391018003225326538 139 143 144
-0.359517008066177368 -0.00607129000127315521 -6.55054712295532227 -0.598428010940551758 -0.277512013912200928 0.751578986644744873 130 133 133
-0.370090007781982422 -0.00631806021556258202 -6.55951547622680664 -0.293238013982772827 -0.376035988330841064 0.87898099422454834 128 130 128
-0.339285999536514282 -0.0432983003556728363 -6.53283214569091797 -0.408910006284713745 -0.89937901496887207 0.154625996947288513 190 199 204
-0.332228988409042358 -0.0287520997226238251 -6.52705764770507812 -0.202009007334709167 -0.974076986312866211 0.101815000176429749 196 206 215
-0.332228988409042358 -0.0287520997226238251 -6.52705764770507812 -0.202009007334709167 -0.974076986312866211 0.101815000176429749 196 206 215
-0.339655011892318726 -0.03939099982380867 -6.5332026481628418 0.00727945985272526741 -0.997049987316131592 0.0764124020934104919 184 192 192
-0.335595011711120605 -0.0385522991418838501 -6.5297698974609375 -0.747250020503997803 -0.577051997184753418 0.329587996006011963 74 76 79
-0.334376990795135498 -0.0396154001355171204 -6.52872037887573242 -0.438576996326446533 -0.881282985210418701 0.176039993762969971 106 109 110
-0.367792993783950806 -0.0247600991278886795 -6.55729532241821289 -0.559464991092681885 0.243129998445510864 0.792393028736114502 185 193 202
-0.349467009305953979 -0.0524775013327598572 -6.5413365364074707 -0.383738011121749878 -0.724965989589691162 0.571986973285675049 83 83 80
-0.351853996515274048 -0.0520954988896846771 -6.54336786270141602 -0.585214018821716309 -0.532770991325378418 0.611293017864227295 117 118 124
-0.348448008298873901 -0.0549958981573581696 -6.54043483734130859 -0.371681004762649536 -0.343187004327774048 0.862599015235900879 100 100 100
-0.337574988603591919 -0.0628924965858459473 -6.53109216690063477 -0.706330001354217529 -0.634652018547058105 0.313553005456924438 124 124 118
-0.357598990201950073 -0.0574956014752388 -6.54816341400146484 -0.664682984352111816 -0.544925987720489502 0.511128008365631104 161 161 162
-0.362691998481750488 -0.0583694986999034882 -6.55247259140014648 -0.515129029750823975 -0.646821022033691406 0.562373995780944824 142 144 143
-0.354196012020111084 -0.0710439980030059814 -6.54507684707641602 -0.540286004543304443 -0.443616002798080444 0.715049982070922852 119 123 125
-0.3509959876537323 -0.0713765993714332581 -6.54235649108886719 -0.134698003530502319 -0.535956978797912598 0.833431005477905273 102 103 101
-0.349289000034332275 -0.0707733035087585449 -6.54091691970825195 0.11592700332403183 -0.361490011215209961 0.925140976905822754 102 105 106
-0.352753996849060059 -0.0728908032178878784 -6.54382610321044922 -0.490588009357452393 -0.270556002855300903 0.828324973583221436 108 109 110
-0.34874001145362854 -0.076975800096988678 -6.5403594970703125 -0.74227297306060791 0.146869003772735596 0.653804004192352295 94 96 98
-0.357475012540817261 -0.0776066035032272339 -6.54776287078857422 -0.732437014579772949 0.148825004696846008 0.66437000036239624 134 135 136
-0.381260007619857788 -0.0775125026702880859 -6.5679478645324707 0.21458899974822998 0.0984542965888977051 0.971728980541229248 135 137 138
-0.380769014358520508 -0.0768904983997344971 -6.56754016876220703 -0.374727994203567505 -0.758453011512756348 0.533223986625671387 144 146 148
-0.378722012042999268 -0.0778949037194252014 -6.56578826904296875 -0.428746014833450317 0.0214121006429195404 0.903172016143798828 140 142 142
-0.376529008150100708 -0.0781956017017364502 -6.56392335891723633 -0.317611008882522583 -0.919214010238647461 0.232742995023727417 138 141 144
-0.374462008476257324 -0.0794681981205940247 -6.56215047836303711 -0.467016011476516724 -0.635955989360809326 0.614373981952667236 140 143 146
-0.357261002063751221 -0.0825024023652076721 -6.54750919342041016 -0.762286007404327393 0.0914624035358428955 0.640745997428894043 151 157 163
-0.386139005422592163 -0.0800751000642776489 -6.57205057144165039 -0.0460028015077114105 0.229413002729415894 0.972241997718811035 153 157 158
-0.369493007659912109 -0.0827462971210479736 -6.55788564682006836 -0.520478010177612305 -0.274091988801956177 0.808687984943389893 140 145 143
-0.368409007787704468 -0.0852290987968444824 -6.55692911148071289 -0.302123993635177612 -0.594421982765197754 0.745240986347198486 53 52 49
-0.357535004615783691 -0.0881209969520568848 -6.54765939712524414 -0.712209999561309814 -0.593722999095916748 0.374498993158340454 45 45 42
-0.335391014814376831 -0.0970525965094566345 -6.52873706817626953 -0.628121018409729004 0.0568556003272533417 0.77603602409362793 199 199 201
-0.339143991470336914 -0.099997498095035553 -6.53187847137451172 -0.584396004676818848 -0.144742995500564575 0.798454999923706055 164 162 160
-0.347436994314193726 -0.0997179001569747925 -6.53891992568969727 -0.681001007556915283 0.106994003057479858 0.724424004554748535 128 132 134
-0.336814999580383301 -0.103059999644756317 -6.52985715866088867 -0.297760009765625 -0.17260800302028656 0.938906013965606689 202 203 207
-0.348351001739501953 -0.101389996707439423 -6.53967094421386719 -0.698010027408599854 0.0634023025631904602 0.713276028633117676 135 140 142
-0.341897010803222656 -0.103526003658771515 -6.53416252136230469 -0.521229028701782227 -0.127779006958007812 0.843797028064727783 187 185 179
-0.340543001890182495 -0.103265002369880676 -6.53301763534545898 -0.142027005553245544 0.069574400782585144 0.987415015697479248 181 180 179
-0.338863998651504517 -0.104111999273300171 -6.53158044815063477 -0.613705992698669434 -0.0580135993659496307 0.787400007247924805 197 198 198
-0.348327994346618652 -0.107167996466159821 -6.5395665168762207 -0.63132399320602417 0.214693993330001831 0.745208978652954102 131 137 140
-0.33775600790977478 -0.107391998171806335 -6.53059196472167969 0.60857701301574707 -0.0763083994388580322 0.789816975593566895 200 199 199
-0.3389739990234375 -0.109474003314971924 -6.53159475326538086 -0.15426500141620636 -0.166001006960868835 0.973985016345977783 207 207 208
-0.350154995918273926 -0.110615000128746033 -6.54106616973876953 -0.707804977893829346 0.234685003757476807 0.666284024715423584 164 173 183
-0.349411994218826294 -0.114276997745037079 -6.54038190841674805 -0.827040016651153564 -0.224187001585960388 0.515504002571105957 159 166 172
-0.341125011444091797 -0.11522500216960907 -6.53333568572998047 -0.0475907996296882629 -0.0766834989190101624 0.995918989181518555 193 191 189
-0.341901987791061401 -0.122234001755714417 -6.53389167785644531 -0.187499001622200012 -0.0182217992842197418 0.982096016407012939 201 201 203
-0.365238994359970093 -0.113095998764038086 -6.55382966995239258 -0.605916976928710938 0.185426995158195496 0.773616015911102295 84 86 89
-0.366869986057281494 -0.11462700366973877 -6.5551910400390625 -0.600292980670928955 0.197494998574256897 0.775012016296386719 88 86 86
-0.363056987524032593 -0.116655997931957245 -6.5519256591796875 -0.642436981201171875 -0.13349500298500061 0.754621028900146484 78 80 79
-0.364430010318756104 -0.118082001805305481 -6.553070068359375 -0.652051985263824463 -0.0583369992673397064 0.755926012992858887 54 55 56
-0.351473987102508545 -0.124664001166820526 -6.54197883605957031 -0.730346024036407471 0.0227570999413728714 0.68269801139831543 159 168 175
-0.357715010643005371 -0.126229003071784973 -6.54725170135498047 -0.607657015323638916 -0.0537435002624988556 0.792379021644592285 41 45 48
-0.357785999774932861 -0.127214998006820679 -6.54729747772216797 -0.271494001150131226 0.0350940003991127014 0.961799979209899902 37 41 44
-0.337938994169235229 -0.133450999855995178 -6.53036403656005859 0.12230200320482254 0.0313129015266895294 0.991998970508575439 193 190 185
-0.384965986013412476 -0.125936999917030334 -6.57038068771362305 0.88532102108001709 -0.115193001925945282 0.45048600435256958 137 137 131
-0.365559995174407959 -0.127249002456665039 -6.55389404296875 -0.80743098258972168 -0.0611356012523174286 0.586785018444061279 46 47 48
-0.360817998647689819 -0.127692997455596924 -6.54986333847045898 -0.802258014678955078 -0.0324711017310619354 0.59609299898147583 59 61 60
-0.364472001791000366 -0.129642993211746216 -6.55293560028076172 -0.686658978462219238 -0.345288991928100586 0.639746010303497314 71 73 72
-0.363413989543914795 -0.13201199471950531 -6.55200290679931641 -0.710512995719909668 -0.261846989393234253 0.653151988983154297 63 64 66
-0.337839990854263306 -0.146171003580093384 -6.53009319305419922 -0.816721975803375244 -0.158595994114875793 0.55480802059173584 196 196 197
-0.350762993097305298 -0.147170007228851318 -6.54104471206665039 -0.816178977489471436 -0.0759671032428741455 0.572784006595611572 140 145 149
