ply
            format ascii 1.0
            element vertex 22500
            property float x
            property float y
            property float z
            property uchar red
            property uchar green
            property uchar blue
            property uchar alpha
            end_header
0.016461006747 -0.361267258257 -6.65321093004 80 78 76 255 
0.0189498523188 -0.361267258257 -6.65581132875 80 79 75 255 
0.0214386978905 -0.361267258257 -6.65843886123 80 79 75 255 
0.0239275434623 -0.361267258257 -6.66109352745 86 85 84 255 
0.0264163890341 -0.361267258257 -6.66377532744 86 85 84 255 
0.0289052346059 -0.361267258257 -6.66648426118 87 87 87 255 
0.0313940801776 -0.361267258257 -6.66922032868 89 88 86 255 
0.0338829257494 -0.361267258257 -6.67198352993 88 87 82 255 
0.0363717713212 -0.361267258257 -6.67477386494 84 81 74 255 
0.038860616893 -0.361267258257 -6.67759133371 84 79 67 255 
0.0413494624648 -0.361267258257 -6.68043593623 88 83 69 255 
0.0438383080365 -0.361267258257 -6.68330767251 88 83 69 255 
0.0463271536083 -0.361267258257 -6.68620654254 89 84 68 255 
0.0488159991801 -0.361267258257 -6.68913254633 89 84 68 255 
-0.322021991014 -0.357510540109 -6.55211215185 28 29 27 255 
-0.319533145443 -0.357510540109 -6.55102674649 28 29 27 255 
-0.317044299871 -0.357510540109 -6.54996847488 25 26 23 255 
-0.314555454299 -0.357510540109 -6.54893733703 27 28 26 255 
-0.312066608727 -0.357510540109 -6.54793333294 34 35 33 255 
-0.309577763156 -0.357510540109 -6.5469564626 42 43 41 255 
-0.307088917584 -0.357510540109 -6.54600672602 56 55 54 255 
-0.304600072012 -0.357510540109 -6.54508412319 48 48 46 255 
-0.30211122644 -0.357510540109 -6.54418865412 46 48 51 255 
-0.299622380869 -0.357510540109 -6.54332031881 78 72 62 255 
-0.297133535297 -0.357510540109 -6.54247911725 66 61 55 255 
-0.294644689725 -0.357510540109 -6.54166504945 46 45 41 255 
-0.292155844153 -0.357510540109 -6.5408781154 47 46 42 255 
-0.289666998581 -0.357510540109 -6.54011831511 46 45 42 255 
-0.28717815301 -0.357510540109 -6.53938564858 45 45 41 255 
-0.284689307438 -0.357510540109 -6.5386801158 43 43 40 255 
-0.282200461866 -0.357510540109 -6.53800171678 47 47 44 255 
-0.279711616294 -0.357510540109 -6.53735045151 67 66 61 255 
-0.277222770723 -0.357510540109 -6.53672632 79 77 71 255 
-0.274733925151 -0.357510540109 -6.53612932224 89 85 78 255 
-0.272245079579 -0.357510540109 -6.53555945825 97 92 82 255 
-0.269756234007 -0.357510540109 -6.535016728 100 95 84 255 
-0.267267388435 -0.357510540109 -6.53450113152 102 97 87 255 
-0.264778542864 -0.357510540109 -6.53401266879 97 91 82 255 
-0.262289697292 -0.357510540109 -6.53355133981 91 86 76 255 
-0.25980085172 -0.357510540109 -6.5331171446 71 67 60 255 
-0.257312006148 -0.357510540109 -6.53271008313 71 66 59 255 
-0.254823160577 -0.357510540109 -6.53233015543 44 45 42 255 
-0.252334315005 -0.357510540109 -6.53197736148 61 58 52 255 
-0.249845469433 -0.357510540109 -6.53165170128 70 64 57 255 
-0.247356623861 -0.357510540109 -6.53135317484 54 47 43 255 
-0.244867778289 -0.357510540109 -6.53108178216 52 45 41 255 
-0.242378932718 -0.357510540109 -6.53083752324 28 20 20 255 
-0.239890087146 -0.357510540109 -6.53062039807 35 33 30 255 
-0.237401241574 -0.357510540109 -6.53043040665 42 39 36 255 
-0.234912396002 -0.357510540109 -6.53026754899 47 47 43 255 
-0.232423550431 -0.357510540109 -6.53013182509 55 55 52 255 
-0.229934704859 -0.357510540109 -6.53002323495 72 69 63 255 
-0.227445859287 -0.357510540109 -6.52994177856 76 71 64 255 
-0.224957013715 -0.357510540109 -6.52988745592 83 77 68 255 
-0.222468168143 -0.357510540109 -6.52986026704 88 80 71 255 
-0.219979322572 -0.357510540109 -6.52986021192 90 82 71 255 
-0.217490477 -0.357510540109 -6.52988729056 87 78 68 255 
-0.215001631428 -0.357510540109 -6.52994150295 88 82 75 255 
-0.212512785856 -0.357510540109 -6.53002284909 92 89 85 255 
-0.210023940285 -0.357510540109 -6.53013132899 59 58 53 255 
-0.207535094713 -0.357510540109 -6.53026694265 49 48 43 255 
-0.205046249141 -0.357510540109 -6.53042969006 59 57 52 255 
-0.202557403569 -0.357510540109 -6.53061957123 77 72 65 255 
-0.200068557997 -0.357510540109 -6.53083658616 83 78 72 255 
-0.197579712426 -0.357510540109 -6.53108073484 98 92 82 255 
-0.195090866854 -0.357510540109 -6.53135201728 85 80 71 255 
-0.192602021282 -0.357510540109 -6.53165043347 73 69 63 255 
-0.19011317571 -0.357510540109 -6.53197598342 81 79 75 255 
-0.187624330139 -0.357510540109 -6.53232866713 104 102 95 255 
-0.185135484567 -0.357510540109 -6.53270848459 126 122 114 255 
-0.182646638995 -0.357510540109 -6.53311543581 111 107 101 255 
-0.180157793423 -0.357510540109 -6.53354952078 78 77 73 255 
-0.177668947851 -0.357510540109 -6.53401073951 86 85 81 255 
-0.17518010228 -0.357510540109 -6.534499092 72 72 71 255 
-0.172691256708 -0.357510540109 -6.53501457824 70 71 68 255 
-0.170202411136 -0.357510540109 -6.53555719824 68 69 65 255 
-0.167713565564 -0.357510540109 -6.53612695199 48 48 46 255 
-0.165224719993 -0.357510540109 -6.5367238395 43 44 42 255 
-0.162735874421 -0.357510540109 -6.53734786077 47 47 44 255 
-0.160247028849 -0.357510540109 -6.53799901579 75 73 66 255 
-0.157758183277 -0.357510540109 -6.53867730457 105 101 93 255 
-0.155269337706 -0.357510540109 -6.5393827271 84 81 77 255 
-0.152780492134 -0.357510540109 -6.54011528339 49 48 48 255 
-0.150291646562 -0.357510540109 -6.54087497344 34 34 32 255 
-0.14780280099 -0.357510540109 -6.54166179724 61 58 51 255 
-0.145313955418 -0.357510540109 -6.5424757548 94 89 80 255 
-0.142825109847 -0.357510540109 -6.54331684611 104 99 90 255 
-0.140336264275 -0.357510540109 -6.54418507119 97 92 85 255 
-0.137847418703 -0.357510540109 -6.54508043001 108 103 100 255 
-0.135358573131 -0.357510540109 -6.54600292259 75 73 72 255 
-0.13286972756 -0.357510540109 -6.54695254893 101 100 97 255 
-0.130380881988 -0.357510540109 -6.54792930903 85 84 78 255 
-0.127892036416 -0.357510540109 -6.54893320288 84 82 75 255 
-0.125403190844 -0.357510540109 -6.54996423048 114 110 102 255 
-0.122914345272 -0.357510540109 -6.55102239184 103 99 89 255 
-0.120425499701 -0.357510540109 -6.55210768696 106 101 94 255 
-0.117936654129 -0.357510540109 -6.55322011584 81 78 74 255 
-0.115447808557 -0.357510540109 -6.55435967847 54 53 49 255 
-0.112958962985 -0.357510540109 -6.55552637485 60 58 54 255 
-0.110470117414 -0.357510540109 -6.55672020499 73 71 65 255 
-0.107981271842 -0.357510540109 -6.55794116889 83 79 71 255 
-0.10549242627 -0.357510540109 -6.55918926655 96 90 82 255 
-0.103003580698 -0.357510540109 -6.56046449796 105 98 89 255 
-0.100514735126 -0.357510540109 -6.56176686312 104 98 89 255 
-0.0980258895547 -0.357510540109 -6.56309636205 100 94 85 255 
-0.0955370439829 -0.357510540109 -6.56445299472 103 96 86 255 
-0.0930481984111 -0.357510540109 -6.56583676116 116 112 104 255 
-0.0905593528394 -0.357510540109 -6.56724766135 116 115 108 255 
-0.0880705072676 -0.357510540109 -6.56868569529 116 115 108 255 
-0.0855816616958 -0.357510540109 -6.570150863 116 116 111 255 
-0.083092816124 -0.357510540109 -6.57164316445 128 130 128 255 
-0.0806039705523 -0.357510540109 -6.57316259967 138 141 141 255 
-0.0781151249805 -0.357510540109 -6.57470916864 123 124 119 255 
-0.0756262794087 -0.357510540109 -6.57628287136 130 129 121 255 
-0.0731374338369 -0.357510540109 -6.57788370785 136 135 126 255 
-0.0706485882651 -0.357510540109 -6.57951167809 141 138 131 255 
-0.0681597426934 -0.357510540109 -6.58116678208 117 113 111 255 
-0.0656708971216 -0.357510540109 -6.58284901983 78 75 75 255 
-0.0631820515498 -0.357510540109 -6.58455839134 55 54 53 255 
-0.060693205978 -0.357510540109 -6.5862948966 70 69 64 255 
-0.0582043604063 -0.357510540109 -6.58805853562 82 79 72 255 
-0.0557155148345 -0.357510540109 -6.58984930839 92 86 75 255 
-0.0532266692627 -0.357510540109 -6.59166721492 95 90 78 255 
-0.0507378236909 -0.357510540109 -6.59351225521 79 75 68 255 
-0.0482489781192 -0.357510540109 -6.59538442925 53 51 48 255 
-0.0457601325474 -0.357510540109 -6.59728373705 45 45 42 255 
-0.0432712869756 -0.357510540109 -6.5992101786 61 60 54 255 
-0.0407824414038 -0.357510540109 -6.60116375391 80 76 69 255 
-0.0382935958321 -0.357510540109 -6.60314446298 81 77 69 255 
-0.0358047502603 -0.357510540109 -6.6051523058 94 92 84 255 
-0.0333159046885 -0.357510540109 -6.60718728238 103 102 96 255 
-0.0308270591167 -0.357510540109 -6.60924939271 117 117 111 255 
-0.028338213545 -0.357510540109 -6.6113386368 123 123 118 255 
-0.0258493679732 -0.357510540109 -6.61345501465 128 126 118 255 
-0.0233605224014 -0.357510540109 -6.61559852625 128 126 118 255 
-0.0208716768296 -0.357510540109 -6.61776917161 116 114 107 255 
-0.0183828312579 -0.357510540109 -6.61996695072 116 114 107 255 
-0.0158939856861 -0.357510540109 -6.6221918636 103 102 96 255 
-0.0134051401143 -0.357510540109 -6.62444391022 82 79 74 255 
-0.0109162945425 -0.357510540109 -6.6267230906 75 72 67 255 
-0.00842744897076 -0.357510540109 -6.62902940474 78 75 68 255 
-0.00593860339898 -0.357510540109 -6.63136285264 78 75 68 255 
-0.00344975782721 -0.357510540109 -6.63372343429 80 77 70 255 
-0.000960912255433 -0.357510540109 -6.63611114969 68 66 61 255 
0.00152793331634 -0.357510540109 -6.63852599886 54 52 49 255 
0.00401677888812 -0.357510540109 -6.64096798177 37 36 35 255 
0.00650562445989 -0.357510540109 -6.64343709845 20 19 20 255 
0.00899447003167 -0.357510540109 -6.64593334888 29 29 29 255 
0.0114833156034 -0.357510540109 -6.64845673307 38 38 37 255 
0.0139721611752 -0.357510540109 -6.65100725101 52 52 50 255 
0.016461006747 -0.357510540109 -6.65358490271 80 78 76 255 
0.0189498523188 -0.357510540109 -6.65618968816 80 78 76 255 
0.0214386978905 -0.357510540109 -6.65882160737 80 79 75 255 
0.0239275434623 -0.357510540109 -6.66148066034 88 87 85 255 
0.0264163890341 -0.357510540109 -6.66416684706 88 88 86 255 
0.0289052346059 -0.357510540109 -6.66688016754 87 87 87 255 
0.0313940801776 -0.357510540109 -6.66962062177 89 88 86 255 
0.0338829257494 -0.357510540109 -6.67238820976 88 87 82 255 
0.0363717713212 -0.357510540109 -6.67518293151 84 81 74 255 
0.038860616893 -0.357510540109 -6.67800478701 84 79 67 255 
0.0413494624648 -0.357510540109 -6.68085377627 88 83 69 255 
0.0438383080365 -0.357510540109 -6.68372989928 88 83 69 255 
0.0463271536083 -0.357510540109 -6.68663315606 89 84 68 255 
0.0488159991801 -0.357510540109 -6.68956354658 89 84 68 255 
-0.322021991014 -0.353753821962 -6.55188567559 26 26 24 255 
-0.319533145443 -0.353753821962 -6.55080465696 26 26 24 255 
-0.317044299871 -0.353753821962 -6.54975077209 26 27 25 255 
-0.314555454299 -0.353753821962 -6.54872402098 31 33 33 255 
-0.312066608727 -0.353753821962 -6.54772440362 42 44 46 255 
-0.309577763156 -0.353753821962 -6.54675192002 61 62 63 255 
-0.307088917584 -0.353753821962 -6.54580657018 71 71 70 255 
-0.304600072012 -0.353753821962 -6.54488835409 74 71 67 255 
-0.30211122644 -0.353753821962 -6.54399727175 96 92 85 255 
-0.299622380869 -0.353753821962 -6.54313332318 98 92 82 255 
-0.297133535297 -0.353753821962 -6.54229650836 60 58 52 255 
-0.294644689725 -0.353753821962 -6.54148682729 47 46 41 255 
-0.292155844153 -0.353753821962 -6.54070427998 55 55 53 255 
-0.289666998581 -0.353753821962 -6.53994886643 57 56 55 255 
-0.28717815301 -0.353753821962 -6.53922058663 56 56 55 255 
-0.284689307438 -0.353753821962 -6.53851944059 60 59 55 255 
-0.282200461866 -0.353753821962 -6.5378454283 59 59 54 255 
-0.279711616294 -0.353753821962 -6.53719854978 73 72 68 255 
-0.277222770723 -0.353753821962 -6.536578805 89 86 80 255 
-0.274733925151 -0.353753821962 -6.53598619399 104 101 94 255 
-0.272245079579 -0.353753821962 -6.53542071672 118 113 105 255 
-0.269756234007 -0.353753821962 -6.53488237322 120 113 105 255 
-0.267267388435 -0.353753821962 -6.53437116347 127 122 114 255 
-0.264778542864 -0.353753821962 -6.53388708748 124 119 112 255 
-0.262289697292 -0.353753821962 -6.53343014524 103 97 86 255 
-0.25980085172 -0.353753821962 -6.53300033676 99 92 84 255 
-0.257312006148 -0.353753821962 -6.53259766203 85 80 74 255 
-0.254823160577 -0.353753821962 -6.53222212107 47 49 47 255 
-0.252334315005 -0.353753821962 -6.53187371385 61 57 51 255 
-0.249845469433 -0.353753821962 -6.5315524404 74 68 60 255 
-0.247356623861 -0.353753821962 -6.53125830069 68 67 62 255 
-0.244867778289 -0.353753821962 -6.53099129475 73 66 61 255 
-0.242378932718 -0.353753821962 -6.53075142256 70 60 58 255 
-0.239890087146 -0.353753821962 -6.53053868413 74 65 61 255 
-0.237401241574 -0.353753821962 -6.53035307945 124 121 114 255 
-0.234912396002 -0.353753821962 -6.53019460853 132 129 124 255 
-0.232423550431 -0.353753821962 -6.53006327136 92 92 89 255 
-0.229934704859 -0.353753821962 -6.52995906795 96 95 91 255 
-0.227445859287 -0.353753821962 -6.5298819983 81 78 71 255 
-0.224957013715 -0.353753821962 -6.5298320624 95 90 82 255 
-0.222468168143 -0.353753821962 -6.52980926026 101 94 85 255 
-0.219979322572 -0.353753821962 -6.52981359188 99 92 82 255 
-0.217490477 -0.353753821962 -6.52984505725 117 111 101 255 
-0.215001631428 -0.353753821962 -6.52990365638 132 127 119 255 
-0.212512785856 -0.353753821962 -6.52998938926 108 104 98 255 
-0.210023940285 -0.353753821962 -6.5301022559 74 71 66 255 
-0.207535094713 -0.353753821962 -6.53024225629 57 55 52 255 
-0.205046249141 -0.353753821962 -6.53040939045 69 67 62 255 
-0.202557403569 -0.353753821962 -6.53060365835 89 85 78 255 
-0.200068557997 -0.353753821962 -6.53082506002 109 105 97 255 
-0.197579712426 -0.353753821962 -6.53107359543 108 103 95 255 
-0.195090866854 -0.353753821962 -6.53134926461 112 106 98 255 
-0.192602021282 -0.353753821962 -6.53165206754 102 99 94 255 
-0.19011317571 -0.353753821962 -6.53198200423 102 101 94 255 
-0.187624330139 -0.353753821962 -6.53233907467 132 129 118 255 
-0.185135484567 -0.353753821962 -6.53272327887 138 134 124 255 
-0.182646638995 -0.353753821962 -6.53313461683 138 134 124 255 
-0.180157793423 -0.353753821962 -6.53357308854 109 107 100 255 
-0.177668947851 -0.353753821962 -6.534038694 103 101 94 255 
-0.17518010228 -0.353753821962 -6.53453143323 93 92 87 255 
-0.172691256708 -0.353753821962 -6.53505130621 72 73 70 255 
-0.170202411136 -0.353753821962 -6.53559831294 72 72 68 255 
-0.167713565564 -0.353753821962 -6.53617245343 61 61 58 255 
-0.165224719993 -0.353753821962 -6.53677372768 51 52 48 255 
-0.162735874421 -0.353753821962 -6.53740213568 50 51 47 255 
-0.160247028849 -0.353753821962 -6.53805767744 61 60 54 255 
-0.157758183277 -0.353753821962 -6.53874035296 100 96 88 255 
-0.155269337706 -0.353753821962 -6.53945016223 103 100 92 255 
-0.152780492134 -0.353753821962 -6.54018710525 63 62 61 255 
-0.150291646562 -0.353753821962 -6.54095118204 48 47 45 255 
-0.14780280099 -0.353753821962 -6.54174239258 61 58 52 255 
-0.145313955418 -0.353753821962 -6.54256073687 99 93 85 255 
-0.142825109847 -0.353753821962 -6.54340621492 113 108 101 255 
-0.140336264275 -0.353753821962 -6.54427882673 116 112 104 255 
-0.137847418703 -0.353753821962 -6.54517857229 121 118 113 255 
-0.135358573131 -0.353753821962 -6.54610545161 86 83 82 255 
-0.13286972756 -0.353753821962 -6.54705946469 51 52 51 255 
-0.130380881988 -0.353753821962 -6.54804061152 72 72 68 255 
-0.127892036416 -0.353753821962 -6.54904889211 108 106 100 255 
-0.125403190844 -0.353753821962 -6.55008430645 128 125 118 255 
-0.122914345272 -0.353753821962 -6.55114685455 132 129 122 255 
-0.120425499701 -0.353753821962 -6.5522365364 144 140 133 255 
-0.117936654129 -0.353753821962 -6.55335335202 97 94 90 255 
-0.115447808557 -0.353753821962 -6.55449730138 62 61 57 255 
-0.112958962985 -0.353753821962 -6.55566838451 59 58 54 255 
-0.110470117414 -0.353753821962 -6.55686660139 81 79 73 255 
-0.107981271842 -0.353753821962 -6.55809195202 99 95 87 255 
-0.10549242627 -0.353753821962 -6.55934443641 104 99 91 255 
-0.103003580698 -0.353753821962 -6.56062405456 114 108 98 255 
-0.100514735126 -0.353753821962 -6.56193080646 110 104 94 255 
-0.0980258895547 -0.353753821962 -6.56326469212 100 95 86 255 
-0.0955370439829 -0.353753821962 -6.56462571154 98 96 87 255 
-0.0930481984111 -0.353753821962 -6.56601386471 119 118 110 255 
-0.0905593528394 -0.353753821962 -6.56742915164 107 106 99 255 
-0.0880705072676 -0.353753821962 -6.56887157232 116 115 108 255 
-0.0855816616958 -0.353753821962 -6.57034112676 107 107 101 255 
-0.083092816124 -0.353753821962 -6.57183781495 128 130 128 255 
-0.0806039705523 -0.353753821962 -6.5733616369 137 139 135 255 
-0.0781151249805 -0.353753821962 -6.57491259261 124 125 121 255 
-0.0756262794087 -0.353753821962 -6.57649068208 120 120 111 255 
-0.0731374338369 -0.353753821962 -6.57809590529 142 141 132 255 
-0.0706485882651 -0.353753821962 -6.57972826227 151 149 138 255 
-0.0681597426934 -0.353753821962 -6.581387753 142 140 131 255 
-0.0656708971216 -0.353753821962 -6.58307437749 68 66 66 255 
-0.0631820515498 -0.353753821962 -6.58478813573 56 55 55 255 
-0.060693205978 -0.353753821962 -6.58652902773 77 76 71 255 
-0.0582043604063 -0.353753821962 -6.58829705349 89 87 80 255 
-0.0557155148345 -0.353753821962 -6.590092213 95 91 82 255 
-0.0532266692627 -0.353753821962 -6.59191450627 100 95 84 255 
-0.0507378236909 -0.353753821962 -6.59376393329 87 83 74 255 
-0.0482489781192 -0.353753821962 -6.59564049407 56 55 51 255 
-0.0457601325474 -0.353753821962 -6.5975441886 45 46 42 255 
-0.0432712869756 -0.353753821962 -6.5994750169 62 62 56 255 
-0.0407824414038 -0.353753821962 -6.60143297894 81 78 70 255 
-0.0382935958321 -0.353753821962 -6.60341807475 76 72 65 255 
-0.0358047502603 -0.353753821962 -6.60543030431 94 91 84 255 
-0.0333159046885 -0.353753821962 -6.60746966762 97 95 88 255 
-0.0308270591167 -0.353753821962 -6.60953616469 106 105 99 255 
-0.028338213545 -0.353753821962 -6.61162979552 128 126 119 255 
-0.0258493679732 -0.353753821962 -6.6137505601 130 127 119 255 
-0.0233605224014 -0.353753821962 -6.61589845844 132 128 119 255 
-0.0208716768296 -0.353753821962 -6.61807349054 129 127 118 255 
-0.0183828312579 -0.353753821962 -6.62027565639 129 127 118 255 
-0.0158939856861 -0.353753821962 -6.622504956 129 127 118 255 
-0.0134051401143 -0.353753821962 -6.62476138936 116 113 104 255 
-0.0109162945425 -0.353753821962 -6.62704495648 78 75 68 255 
-0.00842744897076 -0.353753821962 -6.62935565736 78 75 68 255 
-0.00593860339898 -0.353753821962 -6.63169349199 78 75 68 255 
-0.00344975782721 -0.353753821962 -6.63405846037 80 77 70 255 
-0.000960912255433 -0.353753821962 -6.63645056252 68 66 61 255 
0.00152793331634 -0.353753821962 -6.63886979842 54 52 49 255 
0.00401677888812 -0.353753821962 -6.64131616807 53 51 48 255 
0.00650562445989 -0.353753821962 -6.64378967148 37 36 35 255 
0.00899447003167 -0.353753821962 -6.64629030865 37 36 35 255 
0.0114833156034 -0.353753821962 -6.64881807958 20 19 20 255 
0.0139721611752 -0.353753821962 -6.65137298425 38 38 37 255 
0.016461006747 -0.353753821962 -6.65395502269 52 52 50 255 
0.0189498523188 -0.353753821962 -6.65656419488 80 78 76 255 
0.0214386978905 -0.353753821962 -6.65920050083 80 79 75 255 
0.0239275434623 -0.353753821962 -6.66186394053 78 77 75 255 
0.0264163890341 -0.353753821962 -6.66455451399 87 87 86 255 
0.0289052346059 -0.353753821962 -6.66727222121 87 87 87 255 
0.0313940801776 -0.353753821962 -6.67001706218 89 88 86 255 
0.0338829257494 -0.353753821962 -6.67278903691 88 87 82 255 
0.0363717713212 -0.353753821962 -6.67558814539 87 84 75 255 
0.038860616893 -0.353753821962 -6.67841438763 88 83 69 255 
0.0413494624648 -0.353753821962 -6.68126776363 88 83 69 255 
0.0438383080365 -0.353753821962 -6.68414827338 88 83 69 255 
0.0463271536083 -0.353753821962 -6.68705591688 89 84 68 255 
0.0488159991801 -0.353753821962 -6.68999069415 89 84 68 255 
-0.322021991014 -0.349997103814 -6.55165534664 44 44 43 255 
-0.319533145443 -0.349997103814 -6.55057871475 42 43 41 255 
-0.317044299871 -0.349997103814 -6.54952921662 30 32 30 255 
-0.314555454299 -0.349997103814 -6.54850685224 36 39 39 255 
-0.312066608727 -0.349997103814 -6.54751162162 46 48 48 255 
-0.309577763156 -0.349997103814 -6.54654352476 66 67 67 255 
-0.307088917584 -0.349997103814 -6.54560256165 82 82 80 255 
-0.304600072012 -0.349997103814 -6.5446887323 91 89 85 255 
-0.30211122644 -0.349997103814 -6.5438020367 110 106 98 255 
-0.299622380869 -0.349997103814 -6.54294247486 116 111 103 255 
-0.297133535297 -0.349997103814 -6.54211004678 95 90 82 255 
-0.294644689725 -0.349997103814 -6.54130475245 63 61 57 255 
-0.292155844153 -0.349997103814 -6.54052659188 60 60 58 255 
-0.289666998581 -0.349997103814 -6.53977556506 64 64 56 255 
-0.28717815301 -0.349997103814 -6.539051672 64 63 54 255 
-0.284689307438 -0.349997103814 -6.5383549127 64 63 54 255 
-0.282200461866 -0.349997103814 -6.53768528715 64 63 54 255 
-0.279711616294 -0.349997103814 -6.53704279536 53 53 51 255 
-0.277222770723 -0.349997103814 -6.53642743732 85 82 77 255 
-0.274733925151 -0.349997103814 -6.53583921304 112 108 100 255 
-0.272245079579 -0.349997103814 -6.53527812252 112 107 97 255 
-0.269756234007 -0.349997103814 -6.53474416575 124 120 110 255 
-0.267267388435 -0.349997103814 -6.53423734274 128 124 115 255 
-0.264778542864 -0.349997103814 -6.53375765348 120 115 106 255 
-0.262289697292 -0.349997103814 -6.53330509798 87 83 74 255 
-0.25980085172 -0.349997103814 -6.53287967624 74 71 65 255 
-0.257312006148 -0.349997103814 -6.53248138825 46 47 45 255 
-0.254823160577 -0.349997103814 -6.53211023402 35 36 34 255 
-0.252334315005 -0.349997103814 -6.53176621354 49 46 40 255 
-0.249845469433 -0.349997103814 -6.53144932682 72 66 56 255 
-0.247356623861 -0.349997103814 -6.53115957386 84 77 66 255 
-0.244867778289 -0.349997103814 -6.53089695465 95 87 74 255 
-0.242378932718 -0.349997103814 -6.5306614692 86 80 70 255 
-0.239890087146 -0.349997103814 -6.5304531175 115 108 93 255 
-0.237401241574 -0.349997103814 -6.53027189956 132 127 118 255 
-0.234912396002 -0.349997103814 -6.53011781538 101 100 97 255 
-0.232423550431 -0.349997103814 -6.52999086495 76 79 79 255 
-0.229934704859 -0.349997103814 -6.52989104828 126 126 122 255 
-0.227445859287 -0.349997103814 -6.52981836536 102 99 94 255 
-0.224957013715 -0.349997103814 -6.5297728162 109 105 99 255 
-0.222468168143 -0.349997103814 -6.5297544008 99 93 83 255 
-0.219979322572 -0.349997103814 -6.52976311915 100 94 84 255 
-0.217490477 -0.349997103814 -6.52979897126 115 111 101 255 
-0.215001631428 -0.349997103814 -6.52986195712 137 134 126 255 
-0.212512785856 -0.349997103814 -6.52995207674 133 131 122 255 
-0.210023940285 -0.349997103814 -6.53006933012 98 96 90 255 
-0.207535094713 -0.349997103814 -6.53021371725 61 59 56 255 
-0.205046249141 -0.349997103814 -6.53038523814 79 78 75 255 
-0.202557403569 -0.349997103814 -6.53058389278 94 92 87 255 
-0.200068557997 -0.349997103814 -6.53080968118 110 106 99 255 
-0.197579712426 -0.349997103814 -6.53106260334 125 121 114 255 
-0.195090866854 -0.349997103814 -6.53134265925 110 108 104 255 
-0.192602021282 -0.349997103814 -6.53164984892 96 95 91 255 
-0.19011317571 -0.349997103814 -6.53198417234 118 115 106 255 
-0.187624330139 -0.349997103814 -6.53234562952 124 121 111 255 
-0.185135484567 -0.349997103814 -6.53273422046 144 141 132 255 
-0.182646638995 -0.349997103814 -6.53314994515 125 123 116 255 
-0.180157793423 -0.349997103814 -6.5335928036 120 117 109 255 
-0.177668947851 -0.349997103814 -6.53406279581 109 107 100 255 
-0.17518010228 -0.349997103814 -6.53455992177 95 94 90 255 
-0.172691256708 -0.349997103814 -6.53508418148 83 83 79 255 
-0.170202411136 -0.349997103814 -6.53563557495 78 78 75 255 
-0.167713565564 -0.349997103814 -6.53621410218 53 52 49 255 
-0.165224719993 -0.349997103814 -6.53681976317 47 48 44 255 
-0.162735874421 -0.349997103814 -6.53745255791 44 44 40 255 
-0.160247028849 -0.349997103814 -6.5381124864 62 61 55 255 
-0.157758183277 -0.349997103814 -6.53879954866 88 85 76 255 
-0.155269337706 -0.349997103814 -6.53951374466 97 92 84 255 
-0.152780492134 -0.349997103814 -6.54025507443 59 58 55 255 
-0.150291646562 -0.349997103814 -6.54102353795 39 40 38 255 
-0.14780280099 -0.349997103814 -6.54181913522 54 51 45 255 
-0.145313955418 -0.349997103814 -6.54264186626 80 74 64 255 
-0.142825109847 -0.349997103814 -6.54349173105 106 101 92 255 
-0.140336264275 -0.349997103814 -6.54436872959 114 109 101 255 
-0.137847418703 -0.349997103814 -6.54527286189 130 126 118 255 
-0.135358573131 -0.349997103814 -6.54620412795 77 75 73 255 
-0.13286972756 -0.349997103814 -6.54716252776 55 57 55 255 
-0.130380881988 -0.349997103814 -6.54814806133 66 67 64 255 
-0.127892036416 -0.349997103814 -6.54916072865 93 92 86 255 
-0.125403190844 -0.349997103814 -6.55020052973 112 108 99 255 
-0.122914345272 -0.349997103814 -6.55126746457 122 118 111 255 
-0.120425499701 -0.349997103814 -6.55236153316 120 116 112 255 
-0.117936654129 -0.349997103814 -6.55348273551 78 76 75 255 
-0.115447808557 -0.349997103814 -6.55463107161 61 62 59 255 
-0.112958962985 -0.349997103814 -6.55580654147 72 72 68 255 
-0.110470117414 -0.349997103814 -6.55700914509 85 84 78 255 
-0.107981271842 -0.349997103814 -6.55823888246 88 86 80 255 
-0.10549242627 -0.349997103814 -6.55949575359 107 103 95 255 
-0.103003580698 -0.349997103814 -6.56077975847 114 109 99 255 
-0.100514735126 -0.349997103814 -6.56209089712 99 94 85 255 
-0.0980258895547 -0.349997103814 -6.56342916951 90 86 78 255 
-0.0955370439829 -0.349997103814 -6.56479457566 84 81 74 255 
-0.0930481984111 -0.349997103814 -6.56618711557 86 85 79 255 
-0.0905593528394 -0.349997103814 -6.56760678924 102 101 94 255 
-0.0880705072676 -0.349997103814 -6.56905359666 97 96 89 255 
-0.0855816616958 -0.349997103814 -6.57052753783 107 106 98 255 
-0.083092816124 -0.349997103814 -6.57202861277 138 140 136 255 
-0.0806039705523 -0.349997103814 -6.57355682145 158 160 157 255 
-0.0781151249805 -0.349997103814 -6.5751121639 138 139 134 255 
-0.0756262794087 -0.349997103814 -6.5766946401 146 148 141 255 
-0.0731374338369 -0.349997103814 -6.57830425006 166 167 160 255 
-0.0706485882651 -0.349997103814 -6.57994099377 151 150 141 255 
-0.0681597426934 -0.349997103814 -6.58160487124 151 150 141 255 
-0.0656708971216 -0.349997103814 -6.58329588246 101 100 96 255 
-0.0631820515498 -0.349997103814 -6.58501402744 66 66 62 255 
-0.060693205978 -0.349997103814 -6.58675930618 71 71 66 255 
-0.0582043604063 -0.349997103814 -6.58853171867 86 84 78 255 
-0.0557155148345 -0.349997103814 -6.59033126492 94 91 83 255 
-0.0532266692627 -0.349997103814 -6.59215794492 103 98 88 255 
-0.0507378236909 -0.349997103814 -6.59401175868 98 93 84 255 
-0.0482489781192 -0.349997103814 -6.5958927062 65 63 58 255 
-0.0457601325474 -0.349997103814 -6.59780078747 48 48 44 255 
-0.0432712869756 -0.349997103814 -6.5997360025 63 62 56 255 
-0.0407824414038 -0.349997103814 -6.60169835129 79 77 70 255 
-0.0382935958321 -0.349997103814 -6.60368783383 75 71 66 255 
-0.0358047502603 -0.349997103814 -6.60570445012 82 79 73 255 
-0.0333159046885 -0.349997103814 -6.60774820018 93 90 84 255 
-0.0308270591167 -0.349997103814 -6.60981908398 109 107 99 255 
-0.028338213545 -0.349997103814 -6.61191710155 129 125 117 255 
-0.0258493679732 -0.349997103814 -6.61404225287 135 130 122 255 
-0.0233605224014 -0.349997103814 -6.61619453795 135 130 122 255 
-0.0208716768296 -0.349997103814 -6.61837395678 131 127 118 255 
-0.0183828312579 -0.349997103814 -6.62058050937 131 127 118 255 
-0.0158939856861 -0.349997103814 -6.62281419571 135 131 121 255 
-0.0134051401143 -0.349997103814 -6.62507501581 115 112 103 255 
-0.0109162945425 -0.349997103814 -6.62736296967 78 75 68 255 
-0.00842744897076 -0.349997103814 -6.62967805728 78 75 68 255 
-0.00593860339898 -0.349997103814 -6.63202027865 79 76 69 255 
-0.00344975782721 -0.349997103814 -6.63438963377 79 76 69 255 
-0.000960912255433 -0.349997103814 -6.63678612266 68 66 61 255 
0.00152793331634 -0.349997103814 -6.63920974529 68 66 61 255 
0.00401677888812 -0.349997103814 -6.64166050168 53 51 48 255 
0.00650562445989 -0.349997103814 -6.64413839183 53 51 48 255 
0.00899447003167 -0.349997103814 -6.64664341574 37 36 35 255 
0.0114833156034 -0.349997103814 -6.6491755734 36 36 36 255 
0.0139721611752 -0.349997103814 -6.65173486482 36 36 36 255 
0.016461006747 -0.349997103814 -6.65432128999 55 55 53 255 
0.0189498523188 -0.349997103814 -6.65693484892 61 60 58 255 
0.0214386978905 -0.349997103814 -6.6595755416 80 79 75 255 
0.0239275434623 -0.349997103814 -6.66224336804 78 77 75 255 
0.0264163890341 -0.349997103814 -6.66493832824 87 87 86 255 
0.0289052346059 -0.349997103814 -6.66766042219 87 87 87 255 
0.0313940801776 -0.349997103814 -6.6704096499 89 88 86 255 
0.0338829257494 -0.349997103814 -6.67318601136 88 87 82 255 
0.0363717713212 -0.349997103814 -6.67598950659 87 84 75 255 
0.038860616893 -0.349997103814 -6.67882013556 88 83 69 255 
0.0413494624648 -0.349997103814 -6.68167789829 88 83 69 255 
0.0438383080365 -0.349997103814 -6.68456279478 89 84 70 255 
0.0463271536083 -0.349997103814 -6.68747482503 89 84 70 255 
0.0488159991801 -0.349997103814 -6.69041398903 89 84 68 255 
-0.322021991014 -0.346240385667 -6.551421165 44 44 43 255 
-0.319533145443 -0.346240385667 -6.55034891985 44 44 43 255 
-0.317044299871 -0.346240385667 -6.54930380845 44 45 44 255 
-0.314555454299 -0.346240385667 -6.54828583081 41 42 42 255 
-0.312066608727 -0.346240385667 -6.54729498693 50 52 52 255 
-0.309577763156 -0.346240385667 -6.5463312768 75 76 75 255 
-0.307088917584 -0.346240385667 -6.54539470043 85 84 81 255 
-0.304600072012 -0.346240385667 -6.54448525782 96 94 89 255 
-0.30211122644 -0.346240385667 -6.54360294896 106 102 96 255 
-0.299622380869 -0.346240385667 -6.54274777386 111 107 98 255 
-0.297133535297 -0.346240385667 -6.54191973251 104 100 91 255 
-0.294644689725 -0.346240385667 -6.54111882492 60 59 55 255 
-0.292155844153 -0.346240385667 -6.54034505108 66 66 62 255 
-0.289666998581 -0.346240385667 -6.53959841101 57 57 51 255 
-0.28717815301 -0.346240385667 -6.53887890468 59 58 48 255 
-0.284689307438 -0.346240385667 -6.53818653212 48 48 44 255 
-0.282200461866 -0.346240385667 -6.5375212933 45 45 42 255 
-0.279711616294 -0.346240385667 -6.53688318825 47 48 45 255 
-0.277222770723 -0.346240385667 -6.53627221695 59 58 55 255 
-0.274733925151 -0.346240385667 -6.53568837941 78 75 67 255 
-0.272245079579 -0.346240385667 -6.53513167562 98 91 81 255 
-0.269756234007 -0.346240385667 -6.53460210559 102 95 86 255 
-0.267267388435 -0.346240385667 -6.53409966932 102 96 87 255 
-0.264778542864 -0.346240385667 -6.5336243668 99 93 84 255 
-0.262289697292 -0.346240385667 -6.53317619803 98 92 83 255 
-0.25980085172 -0.346240385667 -6.53275516303 89 84 77 255 
-0.257312006148 -0.346240385667 -6.53236126178 37 39 38 255 
-0.254823160577 -0.346240385667 -6.53199449428 35 35 33 255 
-0.252334315005 -0.346240385667 -6.53165486054 60 54 48 255 
-0.249845469433 -0.346240385667 -6.53134236056 74 65 57 255 
-0.247356623861 -0.346240385667 -6.53105699433 83 75 65 255 
-0.244867778289 -0.346240385667 -6.53079876186 82 76 66 255 
-0.242378932718 -0.346240385667 -6.53056766315 80 74 65 255 
-0.239890087146 -0.346240385667 -6.53036369819 108 100 86 255 
-0.237401241574 -0.346240385667 -6.53018686699 122 115 104 255 
-0.234912396002 -0.346240385667 -6.53003716954 105 103 102 255 
-0.232423550431 -0.346240385667 -6.52991460585 80 82 81 255 
-0.229934704859 -0.346240385667 -6.52981917591 84 85 84 255 
-0.227445859287 -0.346240385667 -6.52975087973 67 64 62 255 
-0.224957013715 -0.346240385667 -6.52970971731 96 92 84 255 
-0.222468168143 -0.346240385667 -6.52969568865 106 100 91 255 
-0.219979322572 -0.346240385667 -6.52970879373 111 105 95 255 
-0.217490477 -0.346240385667 -6.52974903258 117 114 104 255 
-0.215001631428 -0.346240385667 -6.52981640518 138 136 128 255 
-0.212512785856 -0.346240385667 -6.52991091154 137 134 125 255 
-0.210023940285 -0.346240385667 -6.53003255165 103 100 97 255 
-0.207535094713 -0.346240385667 -6.53018132552 61 60 58 255 
-0.205046249141 -0.346240385667 -6.53035723315 76 76 73 255 
-0.202557403569 -0.346240385667 -6.53056027453 98 96 90 255 
-0.200068557997 -0.346240385667 -6.53079044967 109 105 98 255 
-0.197579712426 -0.346240385667 -6.53104775856 123 118 110 255 
-0.195090866854 -0.346240385667 -6.53133220121 120 116 109 255 
-0.192602021282 -0.346240385667 -6.53164377761 107 103 101 255 
-0.19011317571 -0.346240385667 -6.53198248777 98 94 88 255 
-0.187624330139 -0.346240385667 -6.53234833169 147 144 136 255 
-0.185135484567 -0.346240385667 -6.53274130937 152 149 142 255 
-0.182646638995 -0.346240385667 -6.53316142079 132 129 121 255 
-0.180157793423 -0.346240385667 -6.53360866598 125 121 110 255 
-0.177668947851 -0.346240385667 -6.53408304492 112 109 100 255 
-0.17518010228 -0.346240385667 -6.53458455762 100 99 94 255 
-0.172691256708 -0.346240385667 -6.53511320407 92 92 88 255 
-0.170202411136 -0.346240385667 -6.53566898428 85 85 81 255 
-0.167713565564 -0.346240385667 -6.53625189825 46 46 43 255 
-0.165224719993 -0.346240385667 -6.53686194597 46 46 43 255 
-0.162735874421 -0.346240385667 -6.53749912745 48 48 45 255 
-0.160247028849 -0.346240385667 -6.53816344268 67 65 60 255 
-0.157758183277 -0.346240385667 -6.53885489167 95 91 83 255 
-0.155269337706 -0.346240385667 -6.53957347441 101 97 89 255 
-0.152780492134 -0.346240385667 -6.54031919091 74 72 68 255 
-0.150291646562 -0.346240385667 -6.54109204117 46 45 42 255 
-0.14780280099 -0.346240385667 -6.54189202519 61 58 50 255 
-0.145313955418 -0.346240385667 -6.54271914296 81 76 64 255 
-0.142825109847 -0.346240385667 -6.54357339448 84 78 66 255 
-0.140336264275 -0.346240385667 -6.54445477976 108 103 94 255 
-0.137847418703 -0.346240385667 -6.5453632988 117 112 105 255 
-0.135358573131 -0.346240385667 -6.54629895159 98 95 94 255 
-0.13286972756 -0.346240385667 -6.54726173814 55 58 58 255 
-0.130380881988 -0.346240385667 -6.54825165845 108 107 102 255 
-0.127892036416 -0.346240385667 -6.54926871251 88 88 83 255 
-0.125403190844 -0.346240385667 -6.55031290033 103 101 95 255 
-0.122914345272 -0.346240385667 -6.5513842219 134 130 125 255 
-0.120425499701 -0.346240385667 -6.55248267723 124 121 117 255 
-0.117936654129 -0.346240385667 -6.55360826632 62 60 59 255 
-0.115447808557 -0.346240385667 -6.55476098916 51 50 49 255 
-0.112958962985 -0.346240385667 -6.55594084575 78 79 74 255 
-0.110470117414 -0.346240385667 -6.55714783611 83 83 78 255 
-0.107981271842 -0.346240385667 -6.55838196022 100 98 92 255 
-0.10549242627 -0.346240385667 -6.55964321808 113 109 101 255 
-0.103003580698 -0.346240385667 -6.5609316097 122 116 105 255 
-0.100514735126 -0.346240385667 -6.56224713508 112 107 97 255 
-0.0980258895547 -0.346240385667 -6.56358979422 93 89 82 255 
-0.0955370439829 -0.346240385667 -6.5649595871 76 74 68 255 
-0.0930481984111 -0.346240385667 -6.56635651375 74 72 67 255 
-0.0905593528394 -0.346240385667 -6.56778057415 91 89 83 255 
-0.0880705072676 -0.346240385667 -6.56923176831 102 101 94 255 
-0.0855816616958 -0.346240385667 -6.57071009622 113 112 103 255 
-0.083092816124 -0.346240385667 -6.57221555789 144 143 137 255 
-0.0806039705523 -0.346240385667 -6.57374815332 174 173 169 255 
-0.0781151249805 -0.346240385667 -6.5753078825 174 172 168 255 
-0.0756262794087 -0.346240385667 -6.57689474544 167 167 164 255 
-0.0731374338369 -0.346240385667 -6.57850874213 172 171 168 255 
-0.0706485882651 -0.346240385667 -6.58014987258 152 151 145 255 
-0.0681597426934 -0.346240385667 -6.58181813679 132 131 126 255 
-0.0656708971216 -0.346240385667 -6.58351353475 86 84 83 255 
-0.0631820515498 -0.346240385667 -6.58523606647 56 55 53 255 
-0.060693205978 -0.346240385667 -6.58698573194 77 76 71 255 
-0.0582043604063 -0.346240385667 -6.58876253117 85 83 78 255 
-0.0557155148345 -0.346240385667 -6.59056646415 95 92 85 255 
-0.0532266692627 -0.346240385667 -6.5923975309 106 102 93 255 
-0.0507378236909 -0.346240385667 -6.59425573139 99 94 86 255 
-0.0482489781192 -0.346240385667 -6.59614106565 63 61 56 255 
-0.0457601325474 -0.346240385667 -6.59805353366 46 46 41 255 
-0.0432712869756 -0.346240385667 -6.59999313542 66 65 58 255 
-0.0407824414038 -0.346240385667 -6.60195987094 86 83 76 255 
-0.0382935958321 -0.346240385667 -6.60395374022 110 106 100 255 
-0.0358047502603 -0.346240385667 -6.60597474325 101 97 93 255 
-0.0333159046885 -0.346240385667 -6.60802288004 116 113 108 255 
-0.0308270591167 -0.346240385667 -6.61009815059 118 115 109 255 
-0.028338213545 -0.346240385667 -6.61220055489 129 125 117 255 
-0.0258493679732 -0.346240385667 -6.61433009295 138 132 122 255 
-0.0233605224014 -0.346240385667 -6.61648676476 141 135 125 255 
-0.0208716768296 -0.346240385667 -6.61867057033 141 135 125 255 
-0.0183828312579 -0.346240385667 -6.62088150966 136 132 123 255 
-0.0158939856861 -0.346240385667 -6.62311958274 131 127 119 255 
-0.0134051401143 -0.346240385667 -6.62538478958 121 118 112 255 
-0.0109162945425 -0.346240385667 -6.62767713017 106 103 98 255 
-0.00842744897076 -0.346240385667 -6.62999660452 79 76 69 255 
-0.00593860339898 -0.346240385667 -6.63234321263 79 76 69 255 
-0.00344975782721 -0.346240385667 -6.63471695449 65 63 58 255 
-0.000960912255433 -0.346240385667 -6.63711783011 64 63 60 255 
0.00152793331634 -0.346240385667 -6.63954583948 64 63 60 255 
0.00401677888812 -0.346240385667 -6.64200098261 64 63 60 255 
0.00650562445989 -0.346240385667 -6.6444832595 64 63 60 255 
0.00899447003167 -0.346240385667 -6.64699267014 66 66 63 255 
0.0114833156034 -0.346240385667 -6.64952921454 66 66 63 255 
0.0139721611752 -0.346240385667 -6.65209289269 54 55 53 255 
0.016461006747 -0.346240385667 -6.6546837046 54 55 53 255 
0.0189498523188 -0.346240385667 -6.65730165026 73 73 70 255 
0.0214386978905 -0.346240385667 -6.65994672969 87 87 83 255 
0.0239275434623 -0.346240385667 -6.66261894286 86 85 83 255 
0.0264163890341 -0.346240385667 -6.6653182898 85 85 84 255 
0.0289052346059 -0.346240385667 -6.66804477049 87 87 87 255 
0.0313940801776 -0.346240385667 -6.67079838493 87 85 81 255 
0.0338829257494 -0.346240385667 -6.67357913314 88 87 82 255 
0.0363717713212 -0.346240385667 -6.67638701509 87 83 73 255 
0.038860616893 -0.346240385667 -6.67922203081 88 83 69 255 
0.0413494624648 -0.346240385667 -6.68208418028 88 83 69 255 
0.0438383080365 -0.346240385667 -6.6849734635 89 84 70 255 
0.0463271536083 -0.346240385667 -6.68788988048 89 84 70 255 
0.0488159991801 -0.346240385667 -6.69083343122 89 84 68 255 
-0.322021991014 -0.342483667519 -6.55118313068 44 44 43 255 
-0.319533145443 -0.342483667519 -6.55011527226 47 48 47 255 
-0.317044299871 -0.342483667519 -6.5490745476 49 50 50 255 
-0.314555454299 -0.342483667519 -6.5480609567 51 54 54 255 
-0.312066608727 -0.342483667519 -6.54707449956 60 64 65 255 
-0.309577763156 -0.342483667519 -6.54611517617 68 71 71 255 
-0.307088917584 -0.342483667519 -6.54518298653 88 89 86 255 
-0.304600072012 -0.342483667519 -6.54427793065 96 94 89 255 
-0.30211122644 -0.342483667519 -6.54340000853 109 106 99 255 
-0.299622380869 -0.342483667519 -6.54254922017 117 112 104 255 
-0.297133535297 -0.342483667519 -6.54172556556 109 104 95 255 
-0.294644689725 -0.342483667519 -6.5409290447 62 61 56 255 
-0.292155844153 -0.342483667519 -6.54015965761 55 55 54 255 
-0.289666998581 -0.342483667519 -6.53941740426 57 57 55 255 
-0.28717815301 -0.342483667519 -6.53870228468 55 55 54 255 
-0.284689307438 -0.342483667519 -6.53801429885 56 56 53 255 
-0.282200461866 -0.342483667519 -6.53735344677 54 53 51 255 
-0.279711616294 -0.342483667519 -6.53671972846 56 57 54 255 
-0.277222770723 -0.342483667519 -6.5361131439 65 65 62 255 
-0.274733925151 -0.342483667519 -6.53553369309 105 99 92 255 
-0.272245079579 -0.342483667519 -6.53498137604 110 103 94 255 
-0.269756234007 -0.342483667519 -6.53445619275 115 109 100 255 
-0.267267388435 -0.342483667519 -6.53395814321 117 111 103 255 
-0.264778542864 -0.342483667519 -6.53348722743 121 114 105 255 
-0.262289697292 -0.342483667519 -6.5330434454 117 109 100 255 
-0.25980085172 -0.342483667519 -6.53262679713 90 85 79 255 
-0.257312006148 -0.342483667519 -6.53223728262 50 50 49 255 
-0.254823160577 -0.342483667519 -6.53187490186 35 35 33 255 
-0.252334315005 -0.342483667519 -6.53153965486 60 57 50 255 
-0.249845469433 -0.342483667519 -6.53123154161 88 81 71 255 
-0.247356623861 -0.342483667519 -6.53095056212 93 85 74 255 
-0.244867778289 -0.342483667519 -6.53069671639 83 77 68 255 
-0.242378932718 -0.342483667519 -6.53047000441 77 74 66 255 
-0.239890087146 -0.342483667519 -6.53027042619 102 96 86 255 
-0.237401241574 -0.342483667519 -6.53009798172 137 132 122 255 
-0.234912396002 -0.342483667519 -6.52995267101 121 118 114 255 
-0.232423550431 -0.342483667519 -6.52983449406 57 60 61 255 
-0.229934704859 -0.342483667519 -6.52974345086 77 78 76 255 
-0.227445859287 -0.342483667519 -6.52967954142 93 93 88 255 
-0.224957013715 -0.342483667519 -6.52964276574 116 114 107 255 
-0.222468168143 -0.342483667519 -6.52963312381 106 102 93 255 
-0.219979322572 -0.342483667519 -6.52965061563 115 110 100 255 
-0.217490477 -0.342483667519 -6.52969524122 128 124 114 255 
-0.215001631428 -0.342483667519 -6.52976700055 138 134 124 255 
-0.212512785856 -0.342483667519 -6.52986589365 135 131 124 255 
-0.210023940285 -0.342483667519 -6.5299919205 105 101 101 255 
-0.207535094713 -0.342483667519 -6.5301450811 61 61 59 255 
-0.205046249141 -0.342483667519 -6.53032537547 73 73 71 255 
-0.202557403569 -0.342483667519 -6.53053280359 98 94 88 255 
-0.200068557997 -0.342483667519 -6.53076736546 106 102 95 255 
-0.197579712426 -0.342483667519 -6.53102906109 121 117 109 255 
-0.195090866854 -0.342483667519 -6.53131789048 132 128 124 255 
-0.192602021282 -0.342483667519 -6.53163385362 109 106 105 255 
-0.19011317571 -0.342483667519 -6.53197695052 78 74 72 255 
-0.187624330139 -0.342483667519 -6.53234718117 118 114 109 255 
-0.185135484567 -0.342483667519 -6.53274454558 156 152 145 255 
-0.182646638995 -0.342483667519 -6.53316904375 147 144 135 255 
-0.180157793423 -0.342483667519 -6.53362067567 129 125 115 255 
-0.177668947851 -0.342483667519 -6.53409944135 112 109 101 255 
-0.17518010228 -0.342483667519 -6.53460534078 107 104 97 255 
-0.172691256708 -0.342483667519 -6.53513837398 92 90 85 255 
-0.170202411136 -0.342483667519 -6.53569854092 72 72 69 255 
-0.167713565564 -0.342483667519 -6.53628584162 71 71 68 255 
-0.165224719993 -0.342483667519 -6.53690027608 64 63 60 255 
-0.162735874421 -0.342483667519 -6.5375418443 63 63 59 255 
-0.160247028849 -0.342483667519 -6.53821054627 63 62 56 255 
-0.157758183277 -0.342483667519 -6.53890638199 97 94 85 255 
-0.155269337706 -0.342483667519 -6.53962935148 111 106 98 255 
-0.152780492134 -0.342483667519 -6.54037945472 84 81 77 255 
-0.150291646562 -0.342483667519 -6.54115669171 52 52 49 255 
-0.14780280099 -0.342483667519 -6.54196106246 53 51 46 255 
-0.145313955418 -0.342483667519 -6.54279256697 84 78 67 255 
-0.142825109847 -0.342483667519 -6.54365120523 84 77 66 255 
-0.140336264275 -0.342483667519 -6.54453697725 95 89 79 255 
-0.137847418703 -0.342483667519 -6.54544988302 103 100 98 255 
-0.135358573131 -0.342483667519 -6.54638992255 89 87 86 255 
-0.13286972756 -0.342483667519 -6.54735709584 49 51 50 255 
-0.130380881988 -0.342483667519 -6.54835140288 87 88 85 255 
-0.127892036416 -0.342483667519 -6.54937284368 82 83 79 255 
-0.125403190844 -0.342483667519 -6.55042141824 111 110 104 255 
-0.122914345272 -0.342483667519 -6.55149712655 146 144 138 255 
-0.120425499701 -0.342483667519 -6.55259996861 125 121 115 255 
-0.117936654129 -0.342483667519 -6.55372994444 101 96 94 255 
-0.115447808557 -0.342483667519 -6.55488705401 45 43 42 255 
-0.112958962985 -0.342483667519 -6.55607129735 61 61 57 255 
-0.110470117414 -0.342483667519 -6.55728267444 81 81 76 255 
-0.107981271842 -0.342483667519 -6.55852118529 99 98 92 255 
-0.10549242627 -0.342483667519 -6.55978682989 107 104 97 255 
-0.103003580698 -0.342483667519 -6.56107960825 116 110 100 255 
-0.100514735126 -0.342483667519 -6.56239952036 104 101 92 255 
-0.0980258895547 -0.342483667519 -6.56374656623 86 84 77 255 
-0.0955370439829 -0.342483667519 -6.56512074586 77 76 71 255 
-0.0930481984111 -0.342483667519 -6.56652205924 74 73 68 255 
-0.0905593528394 -0.342483667519 -6.56795050638 90 89 82 255 
-0.0880705072676 -0.342483667519 -6.56940608727 101 100 91 255 
-0.0855816616958 -0.342483667519 -6.57088880193 109 108 99 255 
-0.083092816124 -0.342483667519 -6.57239865033 122 121 111 255 
-0.0806039705523 -0.342483667519 -6.57393563249 158 156 148 255 
-0.0781151249805 -0.342483667519 -6.57549974841 155 153 146 255 
-0.0756262794087 -0.342483667519 -6.57709099809 188 186 181 255 
-0.0731374338369 -0.342483667519 -6.57870938152 183 183 177 255 
-0.0706485882651 -0.342483667519 -6.58035489871 169 169 162 255 
-0.0681597426934 -0.342483667519 -6.58202754965 96 94 92 255 
-0.0656708971216 -0.342483667519 -6.58372733435 83 82 79 255 
-0.0631820515498 -0.342483667519 -6.5854542528 56 55 53 255 
-0.060693205978 -0.342483667519 -6.58720830501 72 72 67 255 
-0.0582043604063 -0.342483667519 -6.58898949098 87 86 80 255 
-0.0557155148345 -0.342483667519 -6.5907978107 90 88 82 255 
-0.0532266692627 -0.342483667519 -6.59263326418 98 94 86 255 
-0.0507378236909 -0.342483667519 -6.59449585142 95 91 83 255 
-0.0482489781192 -0.342483667519 -6.59638557241 66 64 58 255 
-0.0457601325474 -0.342483667519 -6.59830242715 47 46 42 255 
-0.0432712869756 -0.342483667519 -6.60024641566 79 78 69 255 
-0.0407824414038 -0.342483667519 -6.60221753791 102 100 91 255 
-0.0382935958321 -0.342483667519 -6.60421579393 115 114 105 255 
-0.0358047502603 -0.342483667519 -6.6062411837 142 141 136 255 
-0.0333159046885 -0.342483667519 -6.60829370723 132 131 126 255 
-0.0308270591167 -0.342483667519 -6.61037336451 131 128 122 255 
-0.028338213545 -0.342483667519 -6.61248015555 137 133 125 255 
-0.0258493679732 -0.342483667519 -6.61461408034 140 134 124 255 
-0.0233605224014 -0.342483667519 -6.61677513889 145 138 128 255 
-0.0208716768296 -0.342483667519 -6.6189633312 143 137 127 255 
-0.0183828312579 -0.342483667519 -6.62117865726 135 130 122 255 
-0.0158939856861 -0.342483667519 -6.62342111708 123 120 114 255 
-0.0134051401143 -0.342483667519 -6.62569071066 121 118 113 255 
-0.0109162945425 -0.342483667519 -6.62798743799 121 118 113 255 
-0.00842744897076 -0.342483667519 -6.63031129907 103 101 97 255 
-0.00593860339898 -0.342483667519 -6.63266229392 75 75 71 255 
-0.00344975782721 -0.342483667519 -6.63504042252 77 78 74 255 
-0.000960912255433 -0.342483667519 -6.63744568487 77 78 74 255 
0.00152793331634 -0.342483667519 -6.63987808098 77 78 74 255 
0.00401677888812 -0.342483667519 -6.64233761085 77 78 74 255 
0.00650562445989 -0.342483667519 -6.64482427447 77 78 74 255 
0.00899447003167 -0.342483667519 -6.64733807185 77 78 74 255 
0.0114833156034 -0.342483667519 -6.64987900299 77 78 74 255 
0.0139721611752 -0.342483667519 -6.65244706788 77 78 74 255 
0.016461006747 -0.342483667519 -6.65504226652 86 87 82 255 
0.0189498523188 -0.342483667519 -6.65766459893 86 87 82 255 
0.0214386978905 -0.342483667519 -6.66031406508 86 87 82 255 
0.0239275434623 -0.342483667519 -6.662990665 93 94 88 255 
0.0264163890341 -0.342483667519 -6.66569439867 93 94 88 255 
0.0289052346059 -0.342483667519 -6.6684252661 86 86 85 255 
0.0313940801776 -0.342483667519 -6.67118326728 87 85 81 255 
0.0338829257494 -0.342483667519 -6.67396840222 88 87 82 255 
0.0363717713212 -0.342483667519 -6.67678067091 87 83 73 255 
0.038860616893 -0.342483667519 -6.67962007337 88 83 69 255 
0.0413494624648 -0.342483667519 -6.68248660957 88 83 69 255 
0.0438383080365 -0.342483667519 -6.68538027954 89 84 70 255 
0.0463271536083 -0.342483667519 -6.68830108325 89 84 70 255 
0.0488159991801 -0.342483667519 -6.69124902073 89 84 68 255 
-0.322021991014 -0.338726949372 -6.55094124366 55 56 55 255 
-0.319533145443 -0.338726949372 -6.54987777199 63 64 64 255 
-0.317044299871 -0.338726949372 -6.54884143407 65 67 68 255 
-0.314555454299 -0.338726949372 -6.5478322299 64 66 67 255 
-0.312066608727 -0.338726949372 -6.54685015949 64 66 67 255 
