ply
            format ascii 1.0
            element vertex 22500
            property float x
            property float y
            property float z
            property uchar red
            property uchar green
            property uchar blue
            property uchar alpha
            end_header
-0.582898486581 0.0840500301163 -6.64641807045 144 145 142 255 
-0.578051426267 0.0840500301163 -6.64418791919 123 124 116 255 
-0.573204365953 0.0840500301163 -6.64195776793 108 110 103 255 
-0.568357305639 0.0840500301163 -6.63972761667 97 101 96 255 
-0.563510245325 0.0840500301163 -6.63749746541 99 102 95 255 
-0.558663185011 0.0840500301163 -6.63526731415 99 101 93 255 
-0.553816124697 0.0840500301163 -6.63303716289 103 104 103 255 
-0.548969064383 0.0840500301163 -6.63080701163 119 120 120 255 
-0.544122004069 0.0840500301163 -6.62857686037 132 133 132 255 
-0.539274943755 0.0840500301163 -6.62634670911 145 146 142 255 
-0.534427883441 0.0840500301163 -6.62411655785 137 139 136 255 
-0.529580823127 0.0840500301163 -6.62188640659 108 109 101 255 
-0.524733762813 0.0840500301163 -6.61965625533 90 92 83 255 
-0.519886702499 0.0840500301163 -6.61742610407 86 87 81 255 
-0.515039642185 0.0840500301163 -6.61519595281 106 108 107 255 
-0.510192581871 0.0840500301163 -6.61296580155 105 108 109 255 
-0.505345521557 0.0840500301163 -6.61073565029 129 133 133 255 
-0.500498461243 0.0840500301163 -6.60850549903 131 133 125 255 
-0.495651400929 0.0840500301163 -6.60627534777 106 107 104 255 
-0.490804340615 0.0840500301163 -6.60404519651 124 126 127 255 
-0.485957280301 0.0840500301163 -6.60181504525 146 148 148 255 
-0.481110219987 0.0840500301163 -6.59958489399 139 139 134 255 
-0.476263159673 0.0840500301163 -6.59735474274 129 126 122 255 
-0.47141609936 0.0840500301163 -6.59512459148 139 136 133 255 
-0.466569039046 0.0840500301163 -6.59289444022 121 117 115 255 
-0.461721978732 0.0840500301163 -6.59066428896 116 112 109 255 
-0.456874918418 0.0840500301163 -6.5884341377 110 107 105 255 
-0.452027858104 0.0840500301163 -6.58620398644 99 95 93 255 
-0.44718079779 0.0840500301163 -6.58397383518 91 87 85 255 
-0.442333737476 0.0840500301163 -6.58174368392 98 94 90 255 
-0.437486677162 0.0840500301163 -6.57951353266 106 101 97 255 
-0.432639616848 0.0840500301163 -6.5772833814 103 100 95 255 
-0.427792556534 0.0840500301163 -6.57505323014 102 98 95 255 
-0.42294549622 0.0840500301163 -6.57282307888 105 101 100 255 
-0.418098435906 0.0840500301163 -6.57059292762 104 101 99 255 
-0.413251375592 0.0840500301163 -6.56836277636 92 90 93 255 
-0.408404315278 0.0840500301163 -6.5661326251 114 114 114 255 
-0.403557254964 0.0840500301163 -6.56390247384 98 96 93 255 
-0.39871019465 0.0840500301163 -6.56167232258 86 83 79 255 
-0.393863134336 0.0840500301163 -6.55944217132 99 97 97 255 
-0.389016074022 0.0840500301163 -6.55721202006 92 89 85 255 
-0.384169013708 0.0840500301163 -6.5549818688 84 81 78 255 
-0.379321953394 0.0840500301163 -6.55275171754 87 85 83 255 
-0.37447489308 0.0840500301163 -6.55052156628 83 82 80 255 
-0.369627832766 0.0840500301163 -6.54829141502 79 77 74 255 
-0.364780772452 0.0840500301163 -6.54606126377 83 82 81 255 
-0.359933712138 0.0840500301163 -6.54383111251 89 88 87 255 
-0.355086651824 0.0840500301163 -6.54160096125 88 86 84 255 
-0.350239591511 0.0840500301163 -6.53937080999 88 85 83 255 
-0.345392531197 0.0840500301163 -6.53714065873 88 87 86 255 
-0.340545470883 0.0840500301163 -6.53491050747 92 92 92 255 
-0.335698410569 0.0840500301163 -6.53268035621 89 89 87 255 
-0.330851350255 0.0840500301163 -6.53045020495 98 99 98 255 
-0.326004289941 0.0840500301163 -6.52822005369 102 102 101 255 
-0.321157229627 0.0840500301163 -6.52598990243 109 108 106 255 
-0.316310169313 0.0840500301163 -6.52375975117 110 110 110 255 
-0.311463108999 0.0840500301163 -6.52152959991 118 116 112 255 
-0.306616048685 0.0840500301163 -6.51929944865 79 76 71 255 
-0.301768988371 0.0840500301163 -6.51706929739 81 79 76 255 
-1.02398097515 0.0880776006703 -6.84942993568 70 72 70 255 
-1.01913391484 0.0880776006703 -6.84719978442 70 72 70 255 
-1.01428685452 0.0880776006703 -6.84496963316 67 70 66 255 
-1.00943979421 0.0880776006703 -6.8427394819 67 70 66 255 
-1.0045927339 0.0880776006703 -6.84050933064 67 70 66 255 
-0.999745673581 0.0880776006703 -6.83827917938 67 70 66 255 
-0.994898613267 0.0880776006703 -6.83604902812 67 70 66 255 
-0.990051552953 0.0880776006703 -6.83381887686 67 70 66 255 
-0.985204492639 0.0880776006703 -6.8315887256 67 70 66 255 
-0.980357432325 0.0880776006703 -6.82935857434 72 74 74 255 
-0.975510372011 0.0880776006703 -6.82712842308 90 92 92 255 
-0.970663311697 0.0880776006703 -6.82489827182 99 100 104 255 
-0.965816251384 0.0880776006703 -6.82266812056 102 104 108 255 
-0.96096919107 0.0880776006703 -6.8204379693 111 112 113 255 
-0.956122130756 0.0880776006703 -6.81820781805 116 117 117 255 
-0.951275070442 0.0880776006703 -6.81597766679 116 116 114 255 
-0.946428010128 0.0880776006703 -6.81374751553 112 111 109 255 
-0.941580949814 0.0880776006703 -6.81151736427 112 111 109 255 
-0.9367338895 0.0880776006703 -6.80928721301 109 108 105 255 
-0.931886829186 0.0880776006703 -6.80705706175 114 112 102 255 
-0.927039768872 0.0880776006703 -6.80482691049 114 112 102 255 
-0.922192708558 0.0880776006703 -6.80259675923 87 86 68 255 
-0.917345648244 0.0880776006703 -6.80036660797 67 66 52 255 
-0.91249858793 0.0880776006703 -6.79813645671 47 48 42 255 
-0.907651527616 0.0880776006703 -6.79590630545 52 53 50 255 
-0.902804467302 0.0880776006703 -6.79367615419 52 53 50 255 
-0.897957406988 0.0880776006703 -6.79144600293 70 70 74 255 
-0.893110346674 0.0880776006703 -6.78921585167 77 76 76 255 
-0.88826328636 0.0880776006703 -6.78698570041 70 69 61 255 
-0.883416226046 0.0880776006703 -6.78475554915 75 73 60 255 
-0.878569165732 0.0880776006703 -6.78252539789 68 65 48 255 
-0.873722105418 0.0880776006703 -6.78029524663 60 58 44 255 
-0.868875045104 0.0880776006703 -6.77806509537 56 54 46 255 
-0.86402798479 0.0880776006703 -6.77583494411 54 54 54 255 
-0.859180924476 0.0880776006703 -6.77360479285 54 54 54 255 
-0.854333864162 0.0880776006703 -6.77137464159 73 72 75 255 
-0.849486803848 0.0880776006703 -6.76914449033 101 101 96 255 
-0.844639743535 0.0880776006703 -6.76691433908 107 107 96 255 
-0.839792683221 0.0880776006703 -6.76468418782 68 66 51 255 
-0.834945622907 0.0880776006703 -6.76245403656 60 58 46 255 
-0.830098562593 0.0880776006703 -6.7602238853 59 58 53 255 
-0.825251502279 0.0880776006703 -6.75799373404 57 56 53 255 
-0.820404441965 0.0880776006703 -6.75576358278 66 66 63 255 
-0.815557381651 0.0880776006703 -6.75353343152 59 59 57 255 
-0.810710321337 0.0880776006703 -6.75130328026 76 76 73 255 
-0.805863261023 0.0880776006703 -6.749073129 77 78 78 255 
-0.801016200709 0.0880776006703 -6.74684297774 86 87 86 255 
-0.796169140395 0.0880776006703 -6.74461282648 91 93 88 255 
-0.791322080081 0.0880776006703 -6.74238267522 91 93 83 255 
-0.786475019767 0.0880776006703 -6.74015252396 81 81 72 255 
-0.781627959453 0.0880776006703 -6.7379223727 74 74 66 255 
-0.776780899139 0.0880776006703 -6.73569222144 81 80 71 255 
-0.771933838825 0.0880776006703 -6.73346207018 72 72 63 255 
-0.767086778511 0.0880776006703 -6.73123191892 66 66 58 255 
-0.762239718197 0.0880776006703 -6.72900176766 54 55 49 255 
-0.757392657883 0.0880776006703 -6.7267716164 56 57 51 255 
-0.752545597569 0.0880776006703 -6.72454146514 52 53 50 255 
-0.747698537255 0.0880776006703 -6.72231131388 68 69 69 255 
-0.742851476941 0.0880776006703 -6.72008116262 105 106 107 255 
-0.738004416627 0.0880776006703 -6.71785101136 119 119 112 255 
-0.733157356313 0.0880776006703 -6.71562086011 97 97 86 255 
-0.728310295999 0.0880776006703 -6.71339070885 94 95 87 255 
-0.723463235685 0.0880776006703 -6.71116055759 63 64 57 255 
-0.718616175372 0.0880776006703 -6.70893040633 56 57 51 255 
-0.713769115058 0.0880776006703 -6.70670025507 65 66 60 255 
-0.708922054744 0.0880776006703 -6.70447010381 92 92 88 255 
-0.70407499443 0.0880776006703 -6.70223995255 117 119 122 255 
-0.699227934116 0.0880776006703 -6.70000980129 131 133 136 255 
-0.694380873802 0.0880776006703 -6.69777965003 94 96 94 255 
-0.689533813488 0.0880776006703 -6.69554949877 99 100 97 255 
-0.684686753174 0.0880776006703 -6.69331934751 97 97 89 255 
-0.67983969286 0.0880776006703 -6.69108919625 71 72 70 255 
-0.674992632546 0.0880776006703 -6.68885904499 69 70 68 255 
-0.670145572232 0.0880776006703 -6.68662889373 90 92 88 255 
-0.665298511918 0.0880776006703 -6.68439874247 105 107 108 255 
-0.660451451604 0.0880776006703 -6.68216859121 125 129 132 255 
-0.65560439129 0.0880776006703 -6.67993843995 112 114 113 255 
-0.650757330976 0.0880776006703 -6.67770828869 125 126 125 255 
-0.645910270662 0.0880776006703 -6.67547813743 136 142 143 255 
-0.641063210348 0.0880776006703 -6.67324798617 138 146 148 255 
-0.636216150034 0.0880776006703 -6.67101783491 127 126 118 255 
-0.63136908972 0.0880776006703 -6.66878768365 134 131 127 255 
-0.626522029406 0.0880776006703 -6.6665575324 137 137 134 255 
-0.621674969092 0.0880776006703 -6.66432738114 117 118 109 255 
-0.616827908778 0.0880776006703 -6.66209722988 114 116 111 255 
-0.611980848464 0.0880776006703 -6.65986707862 111 113 113 255 
-0.60713378815 0.0880776006703 -6.65763692736 108 109 107 255 
-0.602286727836 0.0880776006703 -6.6554067761 114 116 111 255 
-0.597439667523 0.0880776006703 -6.65317662484 119 121 121 255 
-0.592592607209 0.0880776006703 -6.65094647358 126 128 130 255 
-0.587745546895 0.0880776006703 -6.64871632232 152 155 154 255 
-0.582898486581 0.0880776006703 -6.64648617106 142 143 141 255 
-0.578051426267 0.0880776006703 -6.6442560198 131 133 132 255 
-0.573204365953 0.0880776006703 -6.64202586854 106 109 107 255 
-0.568357305639 0.0880776006703 -6.63979571728 90 93 92 255 
-0.563510245325 0.0880776006703 -6.63756556602 126 131 130 255 
-0.558663185011 0.0880776006703 -6.63533541476 115 118 117 255 
-0.553816124697 0.0880776006703 -6.6331052635 93 96 98 255 
-0.548969064383 0.0880776006703 -6.63087511224 129 131 130 255 
-0.544122004069 0.0880776006703 -6.62864496098 136 134 133 255 
-0.539274943755 0.0880776006703 -6.62641480972 143 142 141 255 
-0.534427883441 0.0880776006703 -6.62418465846 140 141 139 255 
-0.529580823127 0.0880776006703 -6.6219545072 130 134 131 255 
-0.524733762813 0.0880776006703 -6.61972435594 99 102 106 255 
-0.519886702499 0.0880776006703 -6.61749420468 131 135 141 255 
-0.515039642185 0.0880776006703 -6.61526405343 110 112 111 255 
-0.510192581871 0.0880776006703 -6.61303390217 113 115 118 255 
-0.505345521557 0.0880776006703 -6.61080375091 130 132 133 255 
-0.500498461243 0.0880776006703 -6.60857359965 104 106 108 255 
-0.495651400929 0.0880776006703 -6.60634344839 75 76 78 255 
-0.490804340615 0.0880776006703 -6.60411329713 92 94 99 255 
-0.485957280301 0.0880776006703 -6.60188314587 106 108 109 255 
-0.481110219987 0.0880776006703 -6.59965299461 100 100 96 255 
-0.476263159673 0.0880776006703 -6.59742284335 98 96 93 255 
-0.47141609936 0.0880776006703 -6.59519269209 99 97 96 255 
-0.466569039046 0.0880776006703 -6.59296254083 91 89 88 255 
-0.461721978732 0.0880776006703 -6.59073238957 97 93 91 255 
-0.456874918418 0.0880776006703 -6.58850223831 83 81 80 255 
-0.452027858104 0.0880776006703 -6.58627208705 83 81 81 255 
-0.44718079779 0.0880776006703 -6.58404193579 79 79 77 255 
-0.442333737476 0.0880776006703 -6.58181178453 82 81 78 255 
-0.437486677162 0.0880776006703 -6.57958163327 75 73 72 255 
-0.432639616848 0.0880776006703 -6.57735148201 75 73 72 255 
-0.427792556534 0.0880776006703 -6.57512133075 77 77 74 255 
-0.42294549622 0.0880776006703 -6.57289117949 82 80 79 255 
-0.418098435906 0.0880776006703 -6.57066102823 81 80 77 255 
-0.413251375592 0.0880776006703 -6.56843087697 76 76 74 255 
-0.408404315278 0.0880776006703 -6.56620072571 95 95 93 255 
-0.403557254964 0.0880776006703 -6.56397057446 98 98 94 255 
-0.39871019465 0.0880776006703 -6.5617404232 78 77 72 255 
-0.393863134336 0.0880776006703 -6.55951027194 68 67 63 255 
-0.389016074022 0.0880776006703 -6.55728012068 84 84 81 255 
-0.384169013708 0.0880776006703 -6.55504996942 80 79 76 255 
-0.379321953394 0.0880776006703 -6.55281981816 86 85 85 255 
-0.37447489308 0.0880776006703 -6.5505896669 80 80 78 255 
-0.369627832766 0.0880776006703 -6.54835951564 83 82 77 255 
-0.364780772452 0.0880776006703 -6.54612936438 86 85 81 255 
-0.359933712138 0.0880776006703 -6.54389921312 71 70 69 255 
-0.355086651824 0.0880776006703 -6.54166906186 89 88 88 255 
-0.350239591511 0.0880776006703 -6.5394389106 74 73 71 255 
-0.345392531197 0.0880776006703 -6.53720875934 79 78 77 255 
-0.340545470883 0.0880776006703 -6.53497860808 83 82 79 255 
-0.335698410569 0.0880776006703 -6.53274845682 73 73 69 255 
-0.330851350255 0.0880776006703 -6.53051830556 78 77 76 255 
-0.326004289941 0.0880776006703 -6.5282881543 68 68 65 255 
-0.321157229627 0.0880776006703 -6.52605800304 84 83 80 255 
-0.316310169313 0.0880776006703 -6.52382785178 75 73 69 255 
-0.311463108999 0.0880776006703 -6.52159770052 91 89 85 255 
-0.306616048685 0.0880776006703 -6.51936754926 66 64 59 255 
-0.301768988371 0.0880776006703 -6.517137398 62 60 55 255 
-1.02398097515 0.0921051712244 -6.84949803629 76 78 77 255 
-1.01913391484 0.0921051712244 -6.84726788503 76 78 77 255 
-1.01428685452 0.0921051712244 -6.84503773377 76 78 77 255 
-1.00943979421 0.0921051712244 -6.84280758251 76 78 77 255 
-1.0045927339 0.0921051712244 -6.84057743125 74 75 76 255 
-0.999745673581 0.0921051712244 -6.83834727999 74 75 76 255 
-0.994898613267 0.0921051712244 -6.83611712874 74 75 76 255 
-0.990051552953 0.0921051712244 -6.83388697748 74 75 76 255 
-0.985204492639 0.0921051712244 -6.83165682622 78 80 80 255 
-0.980357432325 0.0921051712244 -6.82942667496 96 97 98 255 
-0.975510372011 0.0921051712244 -6.8271965237 96 97 98 255 
-0.970663311697 0.0921051712244 -6.82496637244 96 97 98 255 
-0.965816251384 0.0921051712244 -6.82273622118 101 102 104 255 
-0.96096919107 0.0921051712244 -6.82050606992 108 110 111 255 
-0.956122130756 0.0921051712244 -6.81827591866 106 107 107 255 
-0.951275070442 0.0921051712244 -6.8160457674 114 114 112 255 
-0.946428010128 0.0921051712244 -6.81381561614 107 106 105 255 
-0.941580949814 0.0921051712244 -6.81158546488 106 106 103 255 
-0.9367338895 0.0921051712244 -6.80935531362 106 106 101 255 
-0.931886829186 0.0921051712244 -6.80712516236 112 112 105 255 
-0.927039768872 0.0921051712244 -6.8048950111 110 109 97 255 
-0.922192708558 0.0921051712244 -6.80266485984 92 92 80 255 
-0.917345648244 0.0921051712244 -6.80043470858 75 76 64 255 
-0.91249858793 0.0921051712244 -6.79820455732 56 56 48 255 
-0.907651527616 0.0921051712244 -6.79597440606 52 53 47 255 
-0.902804467302 0.0921051712244 -6.7937442548 65 66 61 255 
-0.897957406988 0.0921051712244 -6.79151410354 72 72 72 255 
-0.893110346674 0.0921051712244 -6.78928395228 79 78 74 255 
-0.88826328636 0.0921051712244 -6.78705380102 70 69 61 255 
-0.883416226046 0.0921051712244 -6.78482364977 75 73 60 255 
-0.878569165732 0.0921051712244 -6.78259349851 68 65 48 255 
-0.873722105418 0.0921051712244 -6.78036334725 56 55 40 255 
-0.868875045104 0.0921051712244 -6.77813319599 58 57 52 255 
-0.86402798479 0.0921051712244 -6.77590304473 54 54 54 255 
-0.859180924476 0.0921051712244 -6.77367289347 63 62 62 255 
-0.854333864162 0.0921051712244 -6.77144274221 81 79 80 255 
-0.849486803848 0.0921051712244 -6.76921259095 84 84 80 255 
-0.844639743535 0.0921051712244 -6.76698243969 96 96 88 255 
-0.839792683221 0.0921051712244 -6.76475228843 66 66 56 255 
-0.834945622907 0.0921051712244 -6.76252213717 69 69 62 255 
-0.830098562593 0.0921051712244 -6.76029198591 65 65 60 255 
-0.825251502279 0.0921051712244 -6.75806183465 78 78 74 255 
-0.820404441965 0.0921051712244 -6.75583168339 66 66 63 255 
-0.815557381651 0.0921051712244 -6.75360153213 74 74 71 255 
-0.810710321337 0.0921051712244 -6.75137138087 76 76 73 255 
-0.805863261023 0.0921051712244 -6.74914122961 92 92 91 255 
-0.801016200709 0.0921051712244 -6.74691107835 99 100 98 255 
-0.796169140395 0.0921051712244 -6.74468092709 105 106 98 255 
-0.791322080081 0.0921051712244 -6.74245077583 96 97 86 255 
-0.786475019767 0.0921051712244 -6.74022062457 93 93 84 255 
-0.781627959453 0.0921051712244 -6.73799047331 90 89 84 255 
-0.776780899139 0.0921051712244 -6.73576032205 91 90 84 255 
-0.771933838825 0.0921051712244 -6.7335301708 86 86 78 255 
-0.767086778511 0.0921051712244 -6.73130001954 66 66 58 255 
-0.762239718197 0.0921051712244 -6.72906986828 69 70 66 255 
-0.757392657883 0.0921051712244 -6.72683971702 70 72 67 255 
-0.752545597569 0.0921051712244 -6.72460956576 62 63 59 255 
-0.747698537255 0.0921051712244 -6.7223794145 97 98 98 255 
-0.742851476941 0.0921051712244 -6.72014926324 108 108 107 255 
-0.738004416627 0.0921051712244 -6.71791911198 112 112 109 255 
-0.733157356313 0.0921051712244 -6.71568896072 88 89 87 255 
-0.728310295999 0.0921051712244 -6.71345880946 101 103 98 255 
-0.723463235685 0.0921051712244 -6.7112286582 104 106 104 255 
-0.718616175372 0.0921051712244 -6.70899850694 109 110 109 255 
-0.713769115058 0.0921051712244 -6.70676835568 110 111 109 255 
-0.708922054744 0.0921051712244 -6.70453820442 122 124 125 255 
-0.70407499443 0.0921051712244 -6.70230805316 128 130 134 255 
-0.699227934116 0.0921051712244 -6.7000779019 122 125 124 255 
-0.694380873802 0.0921051712244 -6.69784775064 128 129 124 255 
-0.689533813488 0.0921051712244 -6.69561759938 106 109 109 255 
-0.684686753174 0.0921051712244 -6.69338744812 119 121 120 255 
-0.67983969286 0.0921051712244 -6.69115729686 108 112 116 255 
-0.674992632546 0.0921051712244 -6.6889271456 122 126 125 255 
-0.670145572232 0.0921051712244 -6.68669699434 100 104 104 255 
-0.665298511918 0.0921051712244 -6.68446684308 121 122 125 255 
-0.660451451604 0.0921051712244 -6.68223669183 124 125 128 255 
-0.65560439129 0.0921051712244 -6.68000654057 119 120 120 255 
-0.650757330976 0.0921051712244 -6.67777638931 108 110 112 255 
-0.645910270662 0.0921051712244 -6.67554623805 113 115 124 255 
-0.641063210348 0.0921051712244 -6.67331608679 121 123 122 255 
-0.636216150034 0.0921051712244 -6.67108593553 115 114 105 255 
-0.63136908972 0.0921051712244 -6.66885578427 109 107 104 255 
-0.626522029406 0.0921051712244 -6.66662563301 115 115 114 255 
-0.621674969092 0.0921051712244 -6.66439548175 121 122 121 255 
-0.616827908778 0.0921051712244 -6.66216533049 111 112 112 255 
-0.611980848464 0.0921051712244 -6.65993517923 108 110 114 255 
-0.60713378815 0.0921051712244 -6.65770502797 112 114 117 255 
-0.602286727836 0.0921051712244 -6.65547487671 109 110 109 255 
-0.597439667523 0.0921051712244 -6.65324472545 106 105 107 255 
-0.592592607209 0.0921051712244 -6.65101457419 115 115 115 255 
-0.587745546895 0.0921051712244 -6.64878442293 115 116 119 255 
-0.582898486581 0.0921051712244 -6.64655427167 91 92 93 255 
-0.578051426267 0.0921051712244 -6.64432412041 81 84 84 255 
-0.573204365953 0.0921051712244 -6.64209396915 87 89 89 255 
-0.568357305639 0.0921051712244 -6.63986381789 107 111 114 255 
-0.563510245325 0.0921051712244 -6.63763366663 114 117 121 255 
-0.558663185011 0.0921051712244 -6.63540351537 98 100 97 255 
-0.553816124697 0.0921051712244 -6.63317336412 97 97 97 255 
-0.548969064383 0.0921051712244 -6.63094321286 99 100 101 255 
-0.544122004069 0.0921051712244 -6.6287130616 88 88 89 255 
-0.539274943755 0.0921051712244 -6.62648291034 97 98 98 255 
-0.534427883441 0.0921051712244 -6.62425275908 101 102 103 255 
-0.529580823127 0.0921051712244 -6.62202260782 91 93 95 255 
-0.524733762813 0.0921051712244 -6.61979245656 87 90 92 255 
-0.519886702499 0.0921051712244 -6.6175623053 106 108 109 255 
-0.515039642185 0.0921051712244 -6.61533215404 98 99 99 255 
-0.510192581871 0.0921051712244 -6.61310200278 101 104 106 255 
-0.505345521557 0.0921051712244 -6.61087185152 113 115 117 255 
-0.500498461243 0.0921051712244 -6.60864170026 84 85 87 255 
-0.495651400929 0.0921051712244 -6.606411549 72 73 74 255 
-0.490804340615 0.0921051712244 -6.60418139774 91 92 93 255 
-0.485957280301 0.0921051712244 -6.60195124648 100 101 100 255 
-0.481110219987 0.0921051712244 -6.59972109522 100 100 96 255 
-0.476263159673 0.0921051712244 -6.59749094396 94 94 90 255 
-0.47141609936 0.0921051712244 -6.5952607927 95 95 90 255 
-0.466569039046 0.0921051712244 -6.59303064144 85 86 82 255 
-0.461721978732 0.0921051712244 -6.59080049018 88 87 85 255 
-0.456874918418 0.0921051712244 -6.58857033892 85 85 81 255 
-0.452027858104 0.0921051712244 -6.58634018766 75 74 73 255 
-0.44718079779 0.0921051712244 -6.5841100364 87 87 83 255 
-0.442333737476 0.0921051712244 -6.58187988515 67 66 65 255 
-0.437486677162 0.0921051712244 -6.57964973389 66 66 64 255 
-0.432639616848 0.0921051712244 -6.57741958263 61 60 58 255 
-0.427792556534 0.0921051712244 -6.57518943137 68 67 65 255 
-0.42294549622 0.0921051712244 -6.57295928011 69 69 68 255 
-0.418098435906 0.0921051712244 -6.57072912885 74 74 69 255 
-0.413251375592 0.0921051712244 -6.56849897759 72 72 71 255 
-0.408404315278 0.0921051712244 -6.56626882633 82 82 82 255 
-0.403557254964 0.0921051712244 -6.56403867507 69 68 66 255 
-0.39871019465 0.0921051712244 -6.56180852381 73 73 68 255 
-0.393863134336 0.0921051712244 -6.55957837255 65 64 63 255 
-0.389016074022 0.0921051712244 -6.55734822129 50 50 47 255 
-0.384169013708 0.0921051712244 -6.55511807003 110 110 101 255 
-0.379321953394 0.0921051712244 -6.55288791877 86 86 82 255 
-0.37447489308 0.0921051712244 -6.55065776751 64 64 59 255 
-0.369627832766 0.0921051712244 -6.54842761625 60 60 54 255 
-0.364780772452 0.0921051712244 -6.54619746499 69 70 62 255 
-0.359933712138 0.0921051712244 -6.54396731373 97 98 86 255 
-0.355086651824 0.0921051712244 -6.54173716247 82 83 72 255 
-0.350239591511 0.0921051712244 -6.53950701121 82 83 72 255 
-0.345392531197 0.0921051712244 -6.53727685995 78 79 69 255 
-0.340545470883 0.0921051712244 -6.53504670869 93 94 86 255 
-0.335698410569 0.0921051712244 -6.53281655743 75 76 66 255 
-0.330851350255 0.0921051712244 -6.53058640618 114 116 111 255 
-0.326004289941 0.0921051712244 -6.52835625492 74 75 66 255 
-0.321157229627 0.0921051712244 -6.52612610366 92 92 83 255 
-0.316310169313 0.0921051712244 -6.5238959524 94 94 85 255 
-0.311463108999 0.0921051712244 -6.52166580114 83 82 73 255 
-0.306616048685 0.0921051712244 -6.51943564988 88 88 77 255 
-0.301768988371 0.0921051712244 -6.51720549862 74 72 66 255 
-1.02398097515 0.0961327417785 -6.84956613691 76 78 77 255 
-1.01913391484 0.0961327417785 -6.84733598565 76 78 77 255 
-1.01428685452 0.0961327417785 -6.84510583439 76 78 77 255 
-1.00943979421 0.0961327417785 -6.84287568313 76 78 77 255 
-1.0045927339 0.0961327417785 -6.84064553187 76 78 77 255 
-0.999745673581 0.0961327417785 -6.83841538061 74 75 76 255 
-0.994898613267 0.0961327417785 -6.83618522935 74 75 76 255 
-0.990051552953 0.0961327417785 -6.83395507809 74 75 76 255 
-0.985204492639 0.0961327417785 -6.83172492683 90 90 91 255 
-0.980357432325 0.0961327417785 -6.82949477557 90 90 91 255 
-0.975510372011 0.0961327417785 -6.82726462431 90 90 91 255 
-0.970663311697 0.0961327417785 -6.82503447305 96 97 98 255 
-0.965816251384 0.0961327417785 -6.82280432179 91 92 93 255 
-0.96096919107 0.0961327417785 -6.82057417053 96 96 98 255 
-0.956122130756 0.0961327417785 -6.81834401927 104 104 103 255 
-0.951275070442 0.0961327417785 -6.81611386801 104 104 103 255 
-0.946428010128 0.0961327417785 -6.81388371675 104 104 101 255 
-0.941580949814 0.0961327417785 -6.81165356549 104 103 99 255 
-0.9367338895 0.0961327417785 -6.80942341423 101 100 95 255 
-0.931886829186 0.0961327417785 -6.80719326297 105 104 98 255 
-0.927039768872 0.0961327417785 -6.80496311171 99 100 90 255 
-0.922192708558 0.0961327417785 -6.80273296046 87 88 78 255 
-0.917345648244 0.0961327417785 -6.8005028092 78 79 71 255 
-0.91249858793 0.0961327417785 -6.79827265794 62 63 54 255 
-0.907651527616 0.0961327417785 -6.79604250668 67 68 61 255 
-0.902804467302 0.0961327417785 -6.79381235542 65 66 61 255 
-0.897957406988 0.0961327417785 -6.79158220416 83 83 81 255 
-0.893110346674 0.0961327417785 -6.7893520529 79 78 74 255 
-0.88826328636 0.0961327417785 -6.78712190164 70 69 61 255 
-0.883416226046 0.0961327417785 -6.78489175038 75 73 60 255 
-0.878569165732 0.0961327417785 -6.78266159912 75 73 60 255 
-0.873722105418 0.0961327417785 -6.78043144786 56 55 40 255 
-0.868875045104 0.0961327417785 -6.7782012966 58 57 52 255 
-0.86402798479 0.0961327417785 -6.77597114534 63 62 62 255 
-0.859180924476 0.0961327417785 -6.77374099408 63 62 62 255 
-0.854333864162 0.0961327417785 -6.77151084282 98 96 95 255 
-0.849486803848 0.0961327417785 -6.76928069156 101 100 98 255 
-0.844639743535 0.0961327417785 -6.7670505403 92 92 84 255 
-0.839792683221 0.0961327417785 -6.76482038904 92 92 87 255 
-0.834945622907 0.0961327417785 -6.76259023778 78 78 72 255 
-0.830098562593 0.0961327417785 -6.76036008652 75 75 71 255 
-0.825251502279 0.0961327417785 -6.75812993526 86 87 84 255 
-0.820404441965 0.0961327417785 -6.755899784 86 87 84 255 
-0.815557381651 0.0961327417785 -6.75366963274 93 93 91 255 
-0.810710321337 0.0961327417785 -6.75143948149 86 87 85 255 
-0.805863261023 0.0961327417785 -6.74920933023 85 86 85 255 
-0.801016200709 0.0961327417785 -6.74697917897 94 95 93 255 
-0.796169140395 0.0961327417785 -6.74474902771 98 99 94 255 
-0.791322080081 0.0961327417785 -6.74251887645 100 100 92 255 
-0.786475019767 0.0961327417785 -6.74028872519 91 91 81 255 
-0.781627959453 0.0961327417785 -6.73805857393 84 83 77 255 
-0.776780899139 0.0961327417785 -6.73582842267 93 93 89 255 
-0.771933838825 0.0961327417785 -6.73359827141 89 90 84 255 
-0.767086778511 0.0961327417785 -6.73136812015 80 81 75 255 
-0.762239718197 0.0961327417785 -6.72913796889 70 72 68 255 
-0.757392657883 0.0961327417785 -6.72690781763 70 71 68 255 
-0.752545597569 0.0961327417785 -6.72467766637 78 79 77 255 
-0.747698537255 0.0961327417785 -6.72244751511 93 93 93 255 
-0.742851476941 0.0961327417785 -6.72021736385 98 98 98 255 
-0.738004416627 0.0961327417785 -6.71798721259 96 96 94 255 
-0.733157356313 0.0961327417785 -6.71575706133 79 80 79 255 
-0.728310295999 0.0961327417785 -6.71352691007 87 89 90 255 
-0.723463235685 0.0961327417785 -6.71129675881 88 91 93 255 
-0.718616175372 0.0961327417785 -6.70906660755 103 105 105 255 
-0.713769115058 0.0961327417785 -6.70683645629 111 112 114 255 
-0.708922054744 0.0961327417785 -6.70460630503 104 107 111 255 
-0.70407499443 0.0961327417785 -6.70237615377 107 109 115 255 
-0.699227934116 0.0961327417785 -6.70014600252 98 100 101 255 
-0.694380873802 0.0961327417785 -6.69791585126 106 107 107 255 
-0.689533813488 0.0961327417785 -6.6956857 102 104 107 255 
-0.684686753174 0.0961327417785 -6.69345554874 102 104 107 255 
-0.67983969286 0.0961327417785 -6.69122539748 99 102 108 255 
-0.674992632546 0.0961327417785 -6.68899524622 112 117 122 255 
-0.670145572232 0.0961327417785 -6.68676509496 70 72 73 255 
-0.665298511918 0.0961327417785 -6.6845349437 98 99 104 255 
-0.660451451604 0.0961327417785 -6.68230479244 102 104 107 255 
-0.65560439129 0.0961327417785 -6.68007464118 81 83 84 255 
-0.650757330976 0.0961327417785 -6.67784448992 83 85 88 255 
-0.645910270662 0.0961327417785 -6.67561433866 116 118 124 255 
-0.641063210348 0.0961327417785 -6.6733841874 107 109 109 255 
-0.636216150034 0.0961327417785 -6.67115403614 94 94 88 255 
-0.63136908972 0.0961327417785 -6.66892388488 80 79 76 255 
-0.626522029406 0.0961327417785 -6.66669373362 104 106 106 255 
-0.621674969092 0.0961327417785 -6.66446358236 108 109 111 255 
-0.616827908778 0.0961327417785 -6.6622334311 100 103 106 255 
-0.611980848464 0.0961327417785 -6.66000327984 100 103 107 255 
-0.60713378815 0.0961327417785 -6.65777312858 106 108 110 255 
-0.602286727836 0.0961327417785 -6.65554297732 86 87 85 255 
-0.597439667523 0.0961327417785 -6.65331282606 99 101 100 255 
-0.592592607209 0.0961327417785 -6.6510826748 94 96 97 255 
-0.587745546895 0.0961327417785 -6.64885252355 87 91 86 255 
-0.582898486581 0.0961327417785 -6.64662237229 104 106 106 255 
-0.578051426267 0.0961327417785 -6.64439222103 103 106 102 255 
-0.573204365953 0.0961327417785 -6.64216206977 103 106 107 255 
-0.568357305639 0.0961327417785 -6.63993191851 131 136 135 255 
-0.563510245325 0.0961327417785 -6.63770176725 126 130 132 255 
-0.558663185011 0.0961327417785 -6.63547161599 101 101 98 255 
-0.553816124697 0.0961327417785 -6.63324146473 88 87 86 255 
-0.548969064383 0.0961327417785 -6.63101131347 95 96 96 255 
-0.544122004069 0.0961327417785 -6.62878116221 76 77 76 255 
-0.539274943755 0.0961327417785 -6.62655101095 86 87 86 255 
-0.534427883441 0.0961327417785 -6.62432085969 90 91 92 255 
-0.529580823127 0.0961327417785 -6.62209070843 90 90 91 255 
-0.524733762813 0.0961327417785 -6.61986055717 89 90 89 255 
-0.519886702499 0.0961327417785 -6.61763040591 84 84 83 255 
-0.515039642185 0.0961327417785 -6.61540025465 91 92 92 255 
-0.510192581871 0.0961327417785 -6.61317010339 80 81 80 255 
-0.505345521557 0.0961327417785 -6.61093995213 83 84 83 255 
-0.500498461243 0.0961327417785 -6.60870980087 59 60 56 255 
-0.495651400929 0.0961327417785 -6.60647964961 56 56 57 255 
-0.490804340615 0.0961327417785 -6.60424949835 77 77 78 255 
-0.485957280301 0.0961327417785 -6.60201934709 78 79 79 255 
-0.481110219987 0.0961327417785 -6.59978919584 74 74 73 255 
-0.476263159673 0.0961327417785 -6.59755904458 73 73 70 255 
-0.47141609936 0.0961327417785 -6.59532889332 63 63 63 255 
-0.466569039046 0.0961327417785 -6.59309874206 67 68 63 255 
-0.461721978732 0.0961327417785 -6.5908685908 76 77 73 255 
-0.456874918418 0.0961327417785 -6.58863843954 66 66 63 255 
-0.452027858104 0.0961327417785 -6.58640828828 59 59 58 255 
-0.44718079779 0.0961327417785 -6.58417813702 62 62 61 255 
-0.442333737476 0.0961327417785 -6.58194798576 55 56 53 255 
-0.437486677162 0.0961327417785 -6.5797178345 44 44 42 255 
-0.432639616848 0.0961327417785 -6.57748768324 56 55 53 255 
-0.427792556534 0.0961327417785 -6.57525753198 65 65 61 255 
-0.42294549622 0.0961327417785 -6.57302738072 94 95 83 255 
-0.418098435906 0.0961327417785 -6.57079722946 86 86 74 255 
-0.413251375592 0.0961327417785 -6.5685670782 105 105 95 255 
-0.408404315278 0.0961327417785 -6.56633692694 116 116 107 255 
-0.403557254964 0.0961327417785 -6.56410677568 98 98 88 255 
-0.39871019465 0.0961327417785 -6.56187662442 90 90 80 255 
-0.393863134336 0.0961327417785 -6.55964647316 120 119 110 255 
-0.389016074022 0.0961327417785 -6.5574163219 131 130 119 255 
-0.384169013708 0.0961327417785 -6.55518617064 136 135 124 255 
-0.379321953394 0.0961327417785 -6.55295601938 148 148 138 255 
-0.37447489308 0.0961327417785 -6.55072586812 98 99 88 255 
-0.369627832766 0.0961327417785 -6.54849571687 139 139 129 255 
-0.364780772452 0.0961327417785 -6.54626556561 142 142 133 255 
-0.359933712138 0.0961327417785 -6.54403541435 143 143 136 255 
-0.355086651824 0.0961327417785 -6.54180526309 144 144 140 255 
-0.350239591511 0.0961327417785 -6.53957511183 143 144 143 255 
-0.345392531197 0.0961327417785 -6.53734496057 113 115 110 255 
-0.340545470883 0.0961327417785 -6.53511480931 127 130 138 255 
-0.335698410569 0.0961327417785 -6.53288465805 122 124 127 255 
-0.330851350255 0.0961327417785 -6.53065450679 117 120 118 255 
-0.326004289941 0.0961327417785 -6.52842435553 121 124 126 255 
-0.321157229627 0.0961327417785 -6.52619420427 117 119 117 255 
-0.316310169313 0.0961327417785 -6.52396405301 132 132 121 255 
-0.311463108999 0.0961327417785 -6.52173390175 125 124 114 255 
-0.306616048685 0.0961327417785 -6.51950375049 97 96 90 255 
-0.301768988371 0.0961327417785 -6.51727359923 88 87 80 255 
-1.02398097515 0.100160312333 -6.84963423752 76 78 77 255 
-1.01913391484 0.100160312333 -6.84740408626 76 78 77 255 
-1.01428685452 0.100160312333 -6.845173935 87 88 87 255 
-1.00943979421 0.100160312333 -6.84294378374 87 88 87 255 
-1.0045927339 0.100160312333 -6.84071363248 87 88 87 255 
-0.999745673581 0.100160312333 -6.83848348122 87 88 87 255 
-0.994898613267 0.100160312333 -6.83625332996 87 88 87 255 
-0.990051552953 0.100160312333 -6.8340231787 90 90 91 255 
-0.985204492639 0.100160312333 -6.83179302744 90 90 91 255 
-0.980357432325 0.100160312333 -6.82956287618 90 90 91 255 
-0.975510372011 0.100160312333 -6.82733272492 90 90 91 255 
-0.970663311697 0.100160312333 -6.82510257366 85 85 86 255 
-0.965816251384 0.100160312333 -6.8228724224 85 85 86 255 
-0.96096919107 0.100160312333 -6.82064227115 79 80 81 255 
-0.956122130756 0.100160312333 -6.81841211989 87 87 87 255 
-0.951275070442 0.100160312333 -6.81618196863 96 95 94 255 
-0.946428010128 0.100160312333 -6.81395181737 98 96 92 255 
-0.941580949814 0.100160312333 -6.81172166611 98 96 92 255 
-0.9367338895 0.100160312333 -6.80949151485 93 91 87 255 
-0.931886829186 0.100160312333 -6.80726136359 95 94 90 255 
-0.927039768872 0.100160312333 -6.80503121233 99 98 92 255 
-0.922192708558 0.100160312333 -6.80280106107 94 95 86 255 
-0.917345648244 0.100160312333 -6.80057090981 78 79 71 255 
-0.91249858793 0.100160312333 -6.79834075855 73 73 67 255 
-0.907651527616 0.100160312333 -6.79611060729 67 68 61 255 
-0.902804467302 0.100160312333 -6.79388045603 65 66 61 255 
-0.897957406988 0.100160312333 -6.79165030477 83 83 81 255 
-0.893110346674 0.100160312333 -6.78942015351 79 78 74 255 
-0.88826328636 0.100160312333 -6.78719000225 84 83 73 255 
-0.883416226046 0.100160312333 -6.78495985099 75 73 60 255 
-0.878569165732 0.100160312333 -6.78272969973 75 73 60 255 
-0.873722105418 0.100160312333 -6.78049954847 56 55 40 255 
-0.868875045104 0.100160312333 -6.77826939721 67 66 60 255 
-0.86402798479 0.100160312333 -6.77603924595 80 79 77 255 
-0.859180924476 0.100160312333 -6.77380909469 98 96 95 255 
-0.854333864162 0.100160312333 -6.77157894343 98 96 95 255 
-0.849486803848 0.100160312333 -6.76934879218 93 92 90 255 
-0.844639743535 0.100160312333 -6.76711864092 98 98 94 255 
-0.839792683221 0.100160312333 -6.76488848966 93 92 89 255 
-0.834945622907 0.100160312333 -6.7626583384 83 83 81 255 
-0.830098562593 0.100160312333 -6.76042818714 84 83 81 255 
-0.825251502279 0.100160312333 -6.75819803588 86 87 84 255 
-0.820404441965 0.100160312333 -6.75596788462 83 84 81 255 
-0.815557381651 0.100160312333 -6.75373773336 79 80 78 255 
-0.810710321337 0.100160312333 -6.7515075821 72 73 72 255 
-0.805863261023 0.100160312333 -6.74927743084 77 78 77 255 
-0.801016200709 0.100160312333 -6.74704727958 88 88 87 255 
-0.796169140395 0.100160312333 -6.74481712832 80 81 80 255 
-0.791322080081 0.100160312333 -6.74258697706 83 83 77 255 
-0.786475019767 0.100160312333 -6.7403568258 72 72 67 255 
-0.781627959453 0.100160312333 -6.73812667454 81 81 76 255 
-0.776780899139 0.100160312333 -6.73589652328 88 88 85 255 
-0.771933838825 0.100160312333 -6.73366637202 79 80 77 255 
-0.767086778511 0.100160312333 -6.73143622076 60 62 59 255 
-0.762239718197 0.100160312333 -6.7292060695 74 76 72 255 
-0.757392657883 0.100160312333 -6.72697591824 70 71 68 255 
-0.752545597569 0.100160312333 -6.72474576698 75 75 74 255 
-0.747698537255 0.100160312333 -6.72251561572 83 84 84 255 
-0.742851476941 0.100160312333 -6.72028546446 80 79 79 255 
-0.738004416627 0.100160312333 -6.71805531321 73 73 72 255 
-0.733157356313 0.100160312333 -6.71582516195 77 77 77 255 
-0.728310295999 0.100160312333 -6.71359501069 78 80 80 255 
-0.723463235685 0.100160312333 -6.71136485943 80 84 85 255 
-0.718616175372 0.100160312333 -6.70913470817 78 79 78 255 
-0.713769115058 0.100160312333 -6.70690455691 89 91 90 255 
-0.708922054744 0.100160312333 -6.70467440565 98 100 103 255 
-0.70407499443 0.100160312333 -6.70244425439 100 102 106 255 
-0.699227934116 0.100160312333 -6.70021410313 92 94 94 255 
-0.694380873802 0.100160312333 -6.69798395187 84 85 84 255 
-0.689533813488 0.100160312333 -6.69575380061 81 82 84 255 
-0.684686753174 0.100160312333 -6.69352364935 85 86 87 255 
-0.67983969286 0.100160312333 -6.69129349809 89 90 93 255 
-0.674992632546 0.100160312333 -6.68906334683 96 98 99 255 
-0.670145572232 0.100160312333 -6.68683319557 72 73 75 255 
-0.665298511918 0.100160312333 -6.68460304431 76 78 79 255 
-0.660451451604 0.100160312333 -6.68237289305 69 70 71 255 
-0.65560439129 0.100160312333 -6.68014274179 73 76 77 255 
-0.650757330976 0.100160312333 -6.67791259053 72 73 76 255 
-0.645910270662 0.100160312333 -6.67568243927 97 98 99 255 
-0.641063210348 0.100160312333 -6.67345228801 88 88 88 255 
-0.636216150034 0.100160312333 -6.67122213675 82 83 80 255 
-0.63136908972 0.100160312333 -6.66899198549 72 72 69 255 
-0.626522029406 0.100160312333 -6.66676183424 86 86 87 255 
-0.621674969092 0.100160312333 -6.66453168298 83 85 84 255 
-0.616827908778 0.100160312333 -6.66230153172 77 80 79 255 
-0.611980848464 0.100160312333 -6.66007138046 74 75 77 255 
-0.60713378815 0.100160312333 -6.6578412292 70 72 72 255 
-0.602286727836 0.100160312333 -6.65561107794 99 103 105 255 
-0.597439667523 0.100160312333 -6.65338092668 80 81 82 255 
-0.592592607209 0.100160312333 -6.65115077542 84 86 87 255 
-0.587745546895 0.100160312333 -6.64892062416 76 78 79 255 
-0.582898486581 0.100160312333 -6.6466904729 98 103 102 255 
-0.578051426267 0.100160312333 -6.64446032164 148 153 154 255 
-0.573204365953 0.100160312333 -6.64223017038 137 144 143 255 
-0.568357305639 0.100160312333 -6.64000001912 92 93 98 255 
-0.563510245325 0.100160312333 -6.63776986786 114 118 116 255 
-0.558663185011 0.100160312333 -6.6355397166 89 93 92 255 
-0.553816124697 0.100160312333 -6.63330956534 70 72 69 255 
-0.548969064383 0.100160312333 -6.63107941408 66 68 64 255 
-0.544122004069 0.100160312333 -6.62884926282 72 74 72 255 
-0.539274943755 0.100160312333 -6.62661911156 85 87 83 255 
-0.534427883441 0.100160312333 -6.6243889603 94 97 96 255 
-0.529580823127 0.100160312333 -6.62215880904 85 88 90 255 
-0.524733762813 0.100160312333 -6.61992865778 76 77 77 255 
-0.519886702499 0.100160312333 -6.61769850653 76 76 75 255 
-0.515039642185 0.100160312333 -6.61546835527 91 93 92 255 
-0.510192581871 0.100160312333 -6.61323820401 91 93 92 255 
-0.505345521557 0.100160312333 -6.61100805275 96 98 92 255 
-0.500498461243 0.100160312333 -6.60877790149 93 95 88 255 
-0.495651400929 0.100160312333 -6.60654775023 117 119 112 255 
-0.490804340615 0.100160312333 -6.60431759897 88 90 83 255 
-0.485957280301 0.100160312333 -6.60208744771 101 104 102 255 
-0.481110219987 0.100160312333 -6.59985729645 114 117 109 255 
-0.476263159673 0.100160312333 -6.59762714519 96 97 96 255 
-0.47141609936 0.100160312333 -6.59539699393 97 100 96 255 
-0.466569039046 0.100160312333 -6.59316684267 123 124 120 255 
-0.461721978732 0.100160312333 -6.59093669141 121 122 115 255 
-0.456874918418 0.100160312333 -6.58870654015 98 97 91 255 
-0.452027858104 0.100160312333 -6.58647638889 68 69 65 255 
-0.44718079779 0.100160312333 -6.58424623763 84 87 83 255 
-0.442333737476 0.100160312333 -6.58201608637 67 67 57 255 
-0.437486677162 0.100160312333 -6.57978593511 57 56 47 255 
-0.432639616848 0.100160312333 -6.57755578385 110 108 106 255 
-0.427792556534 0.100160312333 -6.57532563259 127 127 120 255 
-0.42294549622 0.100160312333 -6.57309548133 133 133 122 255 
-0.418098435906 0.100160312333 -6.57086533007 120 120 108 255 
-0.413251375592 0.100160312333 -6.56863517881 137 138 127 255 
-0.408404315278 0.100160312333 -6.56640502756 155 154 145 255 
-0.403557254964 0.100160312333 -6.5641748763 153 151 143 255 
-0.39871019465 0.100160312333 -6.56194472504 154 150 145 255 
-0.393863134336 0.100160312333 -6.55971457378 148 143 139 255 
-0.389016074022 0.100160312333 -6.55748442252 145 141 132 255 
-0.384169013708 0.100160312333 -6.55525427126 152 150 141 255 
-0.379321953394 0.100160312333 -6.55302412 162 159 154 255 
-0.37447489308 0.100160312333 -6.55079396874 137 133 127 255 
-0.369627832766 0.100160312333 -6.54856381748 150 149 143 255 
-0.364780772452 0.100160312333 -6.54633366622 152 151 144 255 
-0.359933712138 0.100160312333 -6.54410351496 144 141 137 255 
-0.355086651824 0.100160312333 -6.5418733637 143 141 138 255 
-0.350239591511 0.100160312333 -6.53964321244 122 123 127 255 
-0.345392531197 0.100160312333 -6.53741306118 113 115 119 255 
-0.340545470883 0.100160312333 -6.53518290992 89 91 97 255 
-0.335698410569 0.100160312333 -6.53295275866 97 98 95 255 
-0.330851350255 0.100160312333 -6.5307226074 104 106 107 255 
-0.326004289941 0.100160312333 -6.52849245614 124 127 126 255 
-0.321157229627 0.100160312333 -6.52626230488 160 162 157 255 
-0.316310169313 0.100160312333 -6.52403215362 177 178 169 255 
-0.311463108999 0.100160312333 -6.52180200236 159 160 149 255 
-0.306616048685 0.100160312333 -6.5195718511 137 138 129 255 
-0.301768988371 0.100160312333 -6.51734169984 118 118 111 255 
-1.02398097515 0.104187882887 -6.84970233813 87 88 87 255 
-1.01913391484 0.104187882887 -6.84747218687 87 88 87 255 
-1.01428685452 0.104187882887 -6.84524203561 87 88 87 255 
-1.00943979421 0.104187882887 -6.84301188435 87 88 87 255 
-1.0045927339 0.104187882887 -6.84078173309 87 88 87 255 
-0.999745673581 0.104187882887 -6.83855158183 87 88 87 255 
-0.994898613267 0.104187882887 -6.83632143058 87 88 87 255 
-0.990051552953 0.104187882887 -6.83409127932 87 88 87 255 
-0.985204492639 0.104187882887 -6.83186112806 70 70 71 255 
-0.980357432325 0.104187882887 -6.8296309768 70 70 71 255 
-0.975510372011 0.104187882887 -6.82740082554 70 70 71 255 
-0.970663311697 0.104187882887 -6.82517067428 71 71 73 255 
-0.965816251384 0.104187882887 -6.82294052302 73 73 74 255 
-0.96096919107 0.104187882887 -6.82071037176 73 73 74 255 
-0.956122130756 0.104187882887 -6.8184802205 87 87 87 255 
-0.951275070442 0.104187882887 -6.81625006924 96 94 92 255 
-0.946428010128 0.104187882887 -6.81401991798 98 96 92 255 
-0.941580949814 0.104187882887 -6.81178976672 98 96 92 255 
-0.9367338895 0.104187882887 -6.80955961546 93 91 87 255 
-0.931886829186 0.104187882887 -6.8073294642 93 91 87 255 
-0.927039768872 0.104187882887 -6.80509931294 99 98 92 255 
-0.922192708558 0.104187882887 -6.80286916168 94 95 86 255 
-0.917345648244 0.104187882887 -6.80063901042 78 79 71 255 
-0.91249858793 0.104187882887 -6.79840885916 73 73 67 255 
-0.907651527616 0.104187882887 -6.7961787079 80 81 75 255 
-0.902804467302 0.104187882887 -6.79394855664 81 81 79 255 
-0.897957406988 0.104187882887 -6.79171840538 83 83 81 255 
-0.893110346674 0.104187882887 -6.78948825412 79 78 74 255 
-0.88826328636 0.104187882887 -6.78725810287 84 83 73 255 
-0.883416226046 0.104187882887 -6.78502795161 75 73 60 255 
-0.878569165732 0.104187882887 -6.78279780035 75 73 60 255 
-0.873722105418 0.104187882887 -6.78056764909 56 55 40 255 
-0.868875045104 0.104187882887 -6.77833749783 67 66 60 255 
-0.86402798479 0.104187882887 -6.77610734657 80 79 77 255 
-0.859180924476 0.104187882887 -6.77387719531 90 88 87 255 
-0.854333864162 0.104187882887 -6.77164704405 87 86 84 255 
-0.849486803848 0.104187882887 -6.76941689279 90 89 86 255 
-0.844639743535 0.104187882887 -6.76718674153 85 85 81 255 
-0.839792683221 0.104187882887 -6.76495659027 76 76 75 255 
-0.834945622907 0.104187882887 -6.76272643901 80 80 79 255 
-0.830098562593 0.104187882887 -6.76049628775 81 80 79 255 
-0.825251502279 0.104187882887 -6.75826613649 73 74 72 255 
-0.820404441965 0.104187882887 -6.75603598523 79 80 77 255 
-0.815557381651 0.104187882887 -6.75380583397 66 67 63 255 
-0.810710321337 0.104187882887 -6.75157568271 61 62 61 255 
-0.805863261023 0.104187882887 -6.74934553145 60 60 60 255 
-0.801016200709 0.104187882887 -6.74711538019 69 69 68 255 
-0.796169140395 0.104187882887 -6.74488522893 73 73 71 255 
-0.791322080081 0.104187882887 -6.74265507767 68 68 65 255 
-0.786475019767 0.104187882887 -6.74042492641 68 68 64 255 
-0.781627959453 0.104187882887 -6.73819477515 67 67 63 255 
-0.776780899139 0.104187882887 -6.7359646239 66 67 64 255 
-0.771933838825 0.104187882887 -6.73373447264 65 67 64 255 
-0.767086778511 0.104187882887 -6.73150432138 55 57 54 255 
-0.762239718197 0.104187882887 -6.72927417012 68 69 67 255 
-0.757392657883 0.104187882887 -6.72704401886 67 68 65 255 
-0.752545597569 0.104187882887 -6.7248138676 66 67 66 255 
-0.747698537255 0.104187882887 -6.72258371634 74 74 74 255 
-0.742851476941 0.104187882887 -6.72035356508 69 69 69 255 
-0.738004416627 0.104187882887 -6.71812341382 57 59 58 255 
-0.733157356313 0.104187882887 -6.71589326256 66 67 67 255 
-0.728310295999 0.104187882887 -6.7136631113 63 65 65 255 
-0.723463235685 0.104187882887 -6.71143296004 78 80 79 255 
-0.718616175372 0.104187882887 -6.70920280878 67 70 69 255 
-0.713769115058 0.104187882887 -6.70697265752 61 63 62 255 
-0.708922054744 0.104187882887 -6.70474250626 83 85 87 255 
-0.70407499443 0.104187882887 -6.702512355 82 83 83 255 
-0.699227934116 0.104187882887 -6.70028220374 73 74 73 255 
-0.694380873802 0.104187882887 -6.69805205248 82 83 83 255 
-0.689533813488 0.104187882887 -6.69582190122 79 82 82 255 
-0.684686753174 0.104187882887 -6.69359174996 73 75 76 255 
-0.67983969286 0.104187882887 -6.6913615987 79 84 83 255 
-0.674992632546 0.104187882887 -6.68913144744 86 90 93 255 
-0.670145572232 0.104187882887 -6.68690129618 72 74 75 255 
-0.665298511918 0.104187882887 -6.68467114493 95 99 102 255 
-0.660451451604 0.104187882887 -6.68244099367 60 61 62 255 
-0.65560439129 0.104187882887 -6.68021084241 60 63 65 255 
-0.650757330976 0.104187882887 -6.67798069115 66 67 70 255 
-0.645910270662 0.104187882887 -6.67575053989 75 77 76 255 
-0.641063210348 0.104187882887 -6.67352038863 56 58 56 255 
-0.636216150034 0.104187882887 -6.67129023737 77 79 76 255 
-0.63136908972 0.104187882887 -6.66906008611 69 69 64 255 
-0.626522029406 0.104187882887 -6.66682993485 71 73 71 255 
-0.621674969092 0.104187882887 -6.66459978359 81 84 81 255 
-0.616827908778 0.104187882887 -6.66236963233 142 150 150 255 
-0.611980848464 0.104187882887 -6.66013948107 88 91 88 255 
-0.60713378815 0.104187882887 -6.65790932981 94 99 99 255 
-0.602286727836 0.104187882887 -6.65567917855 113 119 121 255 
-0.597439667523 0.104187882887 -6.65344902729 87 91 90 255 
-0.592592607209 0.104187882887 -6.65121887603 95 99 98 255 
-0.587745546895 0.104187882887 -6.64898872477 98 102 102 255 
-0.582898486581 0.104187882887 -6.64675857351 118 124 121 255 
-0.578051426267 0.104187882887 -6.64452842225 148 154 150 255 
-0.573204365953 0.104187882887 -6.64229827099 140 146 143 255 
-0.568357305639 0.104187882887 -6.64006811973 116 120 115 255 
-0.563510245325 0.104187882887 -6.63783796847 124 130 124 255 
-0.558663185011 0.104187882887 -6.63560781721 128 134 133 255 
-0.553816124697 0.104187882887 -6.63337766596 139 144 146 255 
-0.548969064383 0.104187882887 -6.6311475147 149 153 155 255 
-0.544122004069 0.104187882887 -6.62891736344 125 130 131 255 
-0.539274943755 0.104187882887 -6.62668721218 135 139 139 255 
-0.534427883441 0.104187882887 -6.62445706092 96 101 103 255 
-0.529580823127 0.104187882887 -6.62222690966 94 97 96 255 
-0.524733762813 0.104187882887 -6.6199967584 112 116 111 255 
-0.519886702499 0.104187882887 -6.61776660714 82 86 85 255 
-0.515039642185 0.104187882887 -6.61553645588 84 87 87 255 
-0.510192581871 0.104187882887 -6.61330630462 96 99 99 255 
-0.505345521557 0.104187882887 -6.61107615336 100 102 104 255 
-0.500498461243 0.104187882887 -6.6088460021 124 126 129 255 
-0.495651400929 0.104187882887 -6.60661585084 127 129 121 255 
-0.490804340615 0.104187882887 -6.60438569958 90 92 87 255 
-0.485957280301 0.104187882887 -6.60215554832 115 116 128 255 
-0.481110219987 0.104187882887 -6.59992539706 128 130 140 255 
-0.476263159673 0.104187882887 -6.5976952458 92 92 93 255 
-0.47141609936 0.104187882887 -6.59546509454 102 101 100 255 
-0.466569039046 0.104187882887 -6.59323494328 121 120 121 255 
-0.461721978732 0.104187882887 -6.59100479202 130 130 129 255 
-0.456874918418 0.104187882887 -6.58877464076 107 104 97 255 
