ply
            format ascii 1.0
            element vertex 22500
            property float x
            property float y
            property float z
            property uchar red
            property uchar green
            property uchar blue
            property uchar alpha
            end_header
-0.44009205999 0.132675935258 -6.58307626481 113 108 102 255 
-0.435428126946 0.132675935258 -6.58093725975 119 113 108 255 
-0.430764193903 0.132675935258 -6.57879825469 119 114 108 255 
-0.426100260859 0.132675935258 -6.57665924963 127 121 117 255 
-0.421436327816 0.132675935258 -6.57452024458 120 115 111 255 
-0.416772394772 0.132675935258 -6.57238123952 124 118 115 255 
-0.412108461729 0.132675935258 -6.57024223446 124 119 116 255 
-0.407444528685 0.132675935258 -6.5681032294 140 137 133 255 
-0.402780595642 0.132675935258 -6.56596422434 125 121 118 255 
-0.398116662598 0.132675935258 -6.56382521928 129 123 118 255 
-0.393452729555 0.132675935258 -6.56168621422 122 116 110 255 
-0.388788796511 0.132675935258 -6.55954720916 108 104 100 255 
-0.384124863468 0.132675935258 -6.5574082041 104 101 97 255 
-0.379460930424 0.132675935258 -6.55526919904 114 110 105 255 
-0.374796997381 0.132675935258 -6.55313019399 110 107 102 255 
-0.370133064337 0.132675935258 -6.55099118893 108 105 101 255 
-0.365469131294 0.132675935258 -6.54885218387 99 98 99 255 
-0.36080519825 0.132675935258 -6.54671317881 110 107 107 255 
-0.356141265207 0.132675935258 -6.54457417375 151 158 156 255 
-0.351477332163 0.132675935258 -6.54243516869 151 158 156 255 
-0.34681339912 0.132675935258 -6.54029616363 151 158 156 255 
-0.342149466076 0.132675935258 -6.53815715857 146 155 152 255 
-0.337485533033 0.132675935258 -6.53601815351 154 170 171 255 
-0.332821599989 0.132675935258 -6.53387914845 153 170 174 255 
-0.328157666946 0.132675935258 -6.53174014339 162 176 181 255 
-0.323493733902 0.132675935258 -6.52960113834 152 165 170 255 
-0.318829800859 0.132675935258 -6.52746213328 152 165 170 255 
-0.314165867815 0.132675935258 -6.52532312822 152 165 170 255 
-0.309501934772 0.132675935258 -6.52318412316 151 152 149 255 
-0.304838001728 0.132675935258 -6.5210451181 151 152 149 255 
-0.999764025211 0.136238841202 -6.83982608031 88 90 92 255 
-0.995100092168 0.136238841202 -6.83768707525 88 90 92 255 
-0.990436159124 0.136238841202 -6.83554807019 88 90 92 255 
-0.985772226081 0.136238841202 -6.83340906513 88 90 92 255 
-0.981108293037 0.136238841202 -6.83127006007 88 90 92 255 
-0.976444359994 0.136238841202 -6.82913105501 88 90 92 255 
-0.97178042695 0.136238841202 -6.82699204995 88 90 92 255 
-0.967116493907 0.136238841202 -6.82485304489 88 90 92 255 
-0.962452560863 0.136238841202 -6.82271403983 88 90 92 255 
-0.95778862782 0.136238841202 -6.82057503478 97 98 98 255 
-0.953124694776 0.136238841202 -6.81843602972 97 98 98 255 
-0.948460761733 0.136238841202 -6.81629702466 95 95 89 255 
-0.943796828689 0.136238841202 -6.8141580196 95 95 89 255 
-0.939132895646 0.136238841202 -6.81201901454 95 95 89 255 
-0.934468962602 0.136238841202 -6.80988000948 95 95 89 255 
-0.929805029559 0.136238841202 -6.80774100442 87 87 78 255 
-0.925141096515 0.136238841202 -6.80560199936 78 77 68 255 
-0.920477163472 0.136238841202 -6.8034629943 78 77 68 255 
-0.915813230428 0.136238841202 -6.80132398924 78 77 68 255 
-0.911149297385 0.136238841202 -6.79918498418 94 93 81 255 
-0.906485364341 0.136238841202 -6.79704597913 112 110 102 255 
-0.901821431298 0.136238841202 -6.79490697407 117 115 111 255 
-0.897157498254 0.136238841202 -6.79276796901 117 115 111 255 
-0.892493565211 0.136238841202 -6.79062896395 126 122 119 255 
-0.887829632167 0.136238841202 -6.78848995889 126 122 119 255 
-0.883165699124 0.136238841202 -6.78635095383 126 122 119 255 
-0.87850176608 0.136238841202 -6.78421194877 126 122 119 255 
-0.873837833037 0.136238841202 -6.78207294371 126 122 119 255 
-0.869173899993 0.136238841202 -6.77993393865 126 122 119 255 
-0.864509966949 0.136238841202 -6.77779493359 126 122 119 255 
-0.859846033906 0.136238841202 -6.77565592854 126 122 119 255 
-0.855182100862 0.136238841202 -6.77351692348 126 122 119 255 
-0.850518167819 0.136238841202 -6.77137791842 126 122 119 255 
-0.845854234775 0.136238841202 -6.76923891336 126 122 119 255 
-0.841190301732 0.136238841202 -6.7670999083 126 122 119 255 
-0.836526368688 0.136238841202 -6.76496090324 123 118 113 255 
-0.831862435645 0.136238841202 -6.76282189818 114 111 105 255 
-0.827198502601 0.136238841202 -6.76068289312 117 114 109 255 
-0.822534569558 0.136238841202 -6.75854388806 117 114 109 255 
-0.817870636514 0.136238841202 -6.756404883 117 114 109 255 
-0.813206703471 0.136238841202 -6.75426587794 117 114 109 255 
-0.808542770427 0.136238841202 -6.75212687289 113 111 108 255 
-0.803878837384 0.136238841202 -6.74998786783 122 122 119 255 
-0.79921490434 0.136238841202 -6.74784886277 128 129 128 255 
-0.794550971297 0.136238841202 -6.74570985771 142 143 141 255 
-0.789887038253 0.136238841202 -6.74357085265 142 143 141 255 
-0.78522310521 0.136238841202 -6.74143184759 142 143 141 255 
-0.780559172166 0.136238841202 -6.73929284253 142 143 141 255 
-0.775895239123 0.136238841202 -6.73715383747 147 148 146 255 
-0.771231306079 0.136238841202 -6.73501483241 141 142 141 255 
-0.766567373036 0.136238841202 -6.73287582735 134 137 135 255 
-0.761903439992 0.136238841202 -6.7307368223 137 139 143 255 
-0.757239506949 0.136238841202 -6.72859781724 137 139 143 255 
-0.752575573905 0.136238841202 -6.72645881218 138 140 145 255 
-0.747911640862 0.136238841202 -6.72431980712 139 142 148 255 
-0.743247707818 0.136238841202 -6.72218080206 147 150 159 255 
-0.738583774775 0.136238841202 -6.720041797 147 150 159 255 
-0.733919841731 0.136238841202 -6.71790279194 126 129 132 255 
-0.729255908688 0.136238841202 -6.71576378688 120 123 124 255 
-0.724591975644 0.136238841202 -6.71362478182 120 123 124 255 
-0.719928042601 0.136238841202 -6.71148577676 118 125 124 255 
-0.715264109557 0.136238841202 -6.7093467717 125 133 134 255 
-0.710600176514 0.136238841202 -6.70720776665 131 142 144 255 
-0.70593624347 0.136238841202 -6.70506876159 131 146 148 255 
-0.701272310427 0.136238841202 -6.70292975653 129 143 147 255 
-0.696608377383 0.136238841202 -6.70079075147 137 149 154 255 
-0.69194444434 0.136238841202 -6.69865174641 134 144 147 255 
-0.687280511296 0.136238841202 -6.69651274135 142 143 151 255 
-0.682616578253 0.136238841202 -6.69437373629 142 143 151 255 
-0.677952645209 0.136238841202 -6.69223473123 145 147 155 255 
-0.673288712165 0.136238841202 -6.69009572617 147 148 157 255 
-0.668624779122 0.136238841202 -6.68795672111 140 140 149 255 
-0.663960846078 0.136238841202 -6.68581771605 144 143 149 255 
-0.659296913035 0.136238841202 -6.683678711 131 128 131 255 
-0.654632979991 0.136238841202 -6.68153970594 131 128 131 255 
-0.649969046948 0.136238841202 -6.67940070088 127 126 128 255 
-0.645305113904 0.136238841202 -6.67726169582 137 138 143 255 
-0.640641180861 0.136238841202 -6.67512269076 151 154 161 255 
-0.635977247817 0.136238841202 -6.6729836857 156 161 167 255 
-0.631313314774 0.136238841202 -6.67084468064 156 161 167 255 
-0.62664938173 0.136238841202 -6.66870567558 162 165 166 255 
-0.621985448687 0.136238841202 -6.66656667052 154 156 154 255 
-0.617321515643 0.136238841202 -6.66442766546 138 146 144 255 
-0.6126575826 0.136238841202 -6.66228866041 138 146 144 255 
-0.607993649556 0.136238841202 -6.66014965535 131 136 133 255 
-0.603329716513 0.136238841202 -6.65801065029 135 140 138 255 
-0.598665783469 0.136238841202 -6.65587164523 143 155 155 255 
-0.594001850426 0.136238841202 -6.65373264017 142 154 155 255 
-0.589337917382 0.136238841202 -6.65159363511 158 175 176 255 
-0.584673984339 0.136238841202 -6.64945463005 159 179 181 255 
-0.580010051295 0.136238841202 -6.64731562499 158 176 178 255 
-0.575346118252 0.136238841202 -6.64517661993 136 146 147 255 
-0.570682185208 0.136238841202 -6.64303761487 139 144 143 255 
-0.566018252165 0.136238841202 -6.64089860981 131 132 129 255 
-0.561354319121 0.136238841202 -6.63875960476 131 131 127 255 
-0.556690386078 0.136238841202 -6.6366205997 128 127 123 255 
-0.552026453034 0.136238841202 -6.63448159464 126 134 133 255 
-0.547362519991 0.136238841202 -6.63234258958 120 131 130 255 
-0.542698586947 0.136238841202 -6.63020358452 128 144 143 255 
-0.538034653904 0.136238841202 -6.62806457946 112 124 123 255 
-0.53337072086 0.136238841202 -6.6259255744 113 124 125 255 
-0.528706787817 0.136238841202 -6.62378656934 114 125 127 255 
-0.524042854773 0.136238841202 -6.62164756428 111 118 119 255 
-0.51937892173 0.136238841202 -6.61950855922 118 127 128 255 
-0.514714988686 0.136238841202 -6.61736955417 119 127 126 255 
-0.510051055643 0.136238841202 -6.61523054911 133 143 143 255 
-0.505387122599 0.136238841202 -6.61309154405 159 173 177 255 
-0.500723189556 0.136238841202 -6.61095253899 175 197 200 255 
-0.496059256512 0.136238841202 -6.60881353393 169 188 196 255 
-0.491395323469 0.136238841202 -6.60667452887 157 167 177 255 
-0.486731390425 0.136238841202 -6.60453552381 157 167 177 255 
-0.482067457382 0.136238841202 -6.60239651875 157 167 177 255 
-0.477403524338 0.136238841202 -6.60025751369 154 159 160 255 
-0.472739591294 0.136238841202 -6.59811850863 166 171 171 255 
-0.468075658251 0.136238841202 -6.59597950357 182 188 188 255 
-0.463411725207 0.136238841202 -6.59384049852 182 188 188 255 
-0.458747792164 0.136238841202 -6.59170149346 149 150 147 255 
-0.45408385912 0.136238841202 -6.5895624884 110 105 99 255 
-0.449419926077 0.136238841202 -6.58742348334 110 105 99 255 
-0.444755993033 0.136238841202 -6.58528447828 112 107 102 255 
-0.44009205999 0.136238841202 -6.58314547322 119 113 108 255 
-0.435428126946 0.136238841202 -6.58100646816 119 113 108 255 
-0.430764193903 0.136238841202 -6.5788674631 113 108 103 255 
-0.426100260859 0.136238841202 -6.57672845804 112 107 103 255 
-0.421436327816 0.136238841202 -6.57458945298 112 107 103 255 
-0.416772394772 0.136238841202 -6.57245044793 120 115 111 255 
-0.412108461729 0.136238841202 -6.57031144287 119 114 111 255 
-0.407444528685 0.136238841202 -6.56817243781 126 122 119 255 
-0.402780595642 0.136238841202 -6.56603343275 125 121 118 255 
-0.398116662598 0.136238841202 -6.56389442769 111 107 103 255 
-0.393452729555 0.136238841202 -6.56175542263 100 97 94 255 
-0.388788796511 0.136238841202 -6.55961641757 112 108 104 255 
-0.384124863468 0.136238841202 -6.55747741251 108 104 100 255 
-0.379460930424 0.136238841202 -6.55533840745 101 98 95 255 
-0.374796997381 0.136238841202 -6.55319940239 108 105 101 255 
-0.370133064337 0.136238841202 -6.55106039733 108 105 101 255 
-0.365469131294 0.136238841202 -6.54892139228 99 98 99 255 
-0.36080519825 0.136238841202 -6.54678238722 124 125 126 255 
-0.356141265207 0.136238841202 -6.54464338216 151 158 156 255 
-0.351477332163 0.136238841202 -6.5425043771 151 158 156 255 
-0.34681339912 0.136238841202 -6.54036537204 151 158 156 255 
-0.342149466076 0.136238841202 -6.53822636698 159 175 177 255 
-0.337485533033 0.136238841202 -6.53608736192 154 170 171 255 
-0.332821599989 0.136238841202 -6.53394835686 167 191 199 255 
-0.328157666946 0.136238841202 -6.5318093518 166 188 198 255 
-0.323493733902 0.136238841202 -6.52967034674 152 165 170 255 
-0.318829800859 0.136238841202 -6.52753134168 152 165 170 255 
-0.314165867815 0.136238841202 -6.52539233663 152 165 170 255 
-0.309501934772 0.136238841202 -6.52325333157 152 165 170 255 
-0.304838001728 0.136238841202 -6.52111432651 148 153 153 255 
-0.999764025211 0.139801747147 -6.83989528872 88 90 92 255 
-0.995100092168 0.139801747147 -6.83775628366 88 90 92 255 
-0.990436159124 0.139801747147 -6.8356172786 88 90 92 255 
-0.985772226081 0.139801747147 -6.83347827354 88 90 92 255 
-0.981108293037 0.139801747147 -6.83133926848 88 90 92 255 
-0.976444359994 0.139801747147 -6.82920026342 88 90 92 255 
-0.97178042695 0.139801747147 -6.82706125836 88 90 92 255 
-0.967116493907 0.139801747147 -6.8249222533 88 90 92 255 
-0.962452560863 0.139801747147 -6.82278324824 88 90 92 255 
-0.95778862782 0.139801747147 -6.82064424318 97 98 98 255 
-0.953124694776 0.139801747147 -6.81850523812 97 98 98 255 
-0.948460761733 0.139801747147 -6.81636623307 95 95 89 255 
-0.943796828689 0.139801747147 -6.81422722801 95 95 89 255 
-0.939132895646 0.139801747147 -6.81208822295 95 95 89 255 
-0.934468962602 0.139801747147 -6.80994921789 95 95 89 255 
-0.929805029559 0.139801747147 -6.80781021283 87 87 78 255 
-0.925141096515 0.139801747147 -6.80567120777 78 77 68 255 
-0.920477163472 0.139801747147 -6.80353220271 78 77 68 255 
-0.915813230428 0.139801747147 -6.80139319765 78 77 68 255 
-0.911149297385 0.139801747147 -6.79925419259 112 110 102 255 
-0.906485364341 0.139801747147 -6.79711518753 117 115 111 255 
-0.901821431298 0.139801747147 -6.79497618247 117 115 111 255 
-0.897157498254 0.139801747147 -6.79283717742 117 115 111 255 
-0.892493565211 0.139801747147 -6.79069817236 126 122 119 255 
-0.887829632167 0.139801747147 -6.7885591673 126 122 119 255 
-0.883165699124 0.139801747147 -6.78642016224 126 122 119 255 
-0.87850176608 0.139801747147 -6.78428115718 126 122 119 255 
-0.873837833037 0.139801747147 -6.78214215212 126 122 119 255 
-0.869173899993 0.139801747147 -6.78000314706 126 122 119 255 
-0.864509966949 0.139801747147 -6.777864142 126 122 119 255 
-0.859846033906 0.139801747147 -6.77572513694 126 122 119 255 
-0.855182100862 0.139801747147 -6.77358613188 126 122 119 255 
-0.850518167819 0.139801747147 -6.77144712683 126 122 119 255 
-0.845854234775 0.139801747147 -6.76930812177 126 122 119 255 
-0.841190301732 0.139801747147 -6.76716911671 126 122 119 255 
-0.836526368688 0.139801747147 -6.76503011165 123 118 113 255 
-0.831862435645 0.139801747147 -6.76289110659 114 111 105 255 
-0.827198502601 0.139801747147 -6.76075210153 115 113 107 255 
-0.822534569558 0.139801747147 -6.75861309647 117 114 109 255 
-0.817870636514 0.139801747147 -6.75647409141 117 114 109 255 
-0.813206703471 0.139801747147 -6.75433508635 117 114 109 255 
-0.808542770427 0.139801747147 -6.75219608129 113 111 108 255 
-0.803878837384 0.139801747147 -6.75005707623 114 113 110 255 
-0.79921490434 0.139801747147 -6.74791807118 128 129 128 255 
-0.794550971297 0.139801747147 -6.74577906612 128 129 128 255 
-0.789887038253 0.139801747147 -6.74364006106 142 143 141 255 
-0.78522310521 0.139801747147 -6.741501056 142 143 141 255 
-0.780559172166 0.139801747147 -6.73936205094 142 143 141 255 
-0.775895239123 0.139801747147 -6.73722304588 147 148 146 255 
-0.771231306079 0.139801747147 -6.73508404082 143 147 145 255 
-0.766567373036 0.139801747147 -6.73294503576 134 137 135 255 
-0.761903439992 0.139801747147 -6.7308060307 131 134 135 255 
-0.757239506949 0.139801747147 -6.72866702564 131 134 135 255 
-0.752575573905 0.139801747147 -6.72652802059 133 137 141 255 
-0.747911640862 0.139801747147 -6.72438901553 139 142 148 255 
-0.743247707818 0.139801747147 -6.72225001047 139 141 147 255 
-0.738583774775 0.139801747147 -6.72011100541 137 141 146 255 
-0.733919841731 0.139801747147 -6.71797200035 126 129 132 255 
-0.729255908688 0.139801747147 -6.71583299529 120 123 124 255 
-0.724591975644 0.139801747147 -6.71369399023 120 123 124 255 
-0.719928042601 0.139801747147 -6.71155498517 118 125 124 255 
-0.715264109557 0.139801747147 -6.70941598011 125 133 134 255 
-0.710600176514 0.139801747147 -6.70727697505 131 142 144 255 
-0.70593624347 0.139801747147 -6.70513796999 131 146 148 255 
-0.701272310427 0.139801747147 -6.70299896494 129 143 147 255 
-0.696608377383 0.139801747147 -6.70085995988 129 143 147 255 
-0.69194444434 0.139801747147 -6.69872095482 126 138 140 255 
-0.687280511296 0.139801747147 -6.69658194976 151 165 169 255 
-0.682616578253 0.139801747147 -6.6944429447 142 143 151 255 
-0.677952645209 0.139801747147 -6.69230393964 137 139 146 255 
-0.673288712165 0.139801747147 -6.69016493458 139 141 147 255 
-0.668624779122 0.139801747147 -6.68802592952 141 148 151 255 
-0.663960846078 0.139801747147 -6.68588692446 139 145 148 255 
-0.659296913035 0.139801747147 -6.6837479194 127 130 132 255 
-0.654632979991 0.139801747147 -6.68160891435 131 128 131 255 
-0.649969046948 0.139801747147 -6.67946990929 126 127 130 255 
-0.645305113904 0.139801747147 -6.67733090423 138 143 149 255 
-0.640641180861 0.139801747147 -6.67519189917 145 149 155 255 
-0.635977247817 0.139801747147 -6.67305289411 150 154 160 255 
-0.631313314774 0.139801747147 -6.67091388905 156 161 167 255 
-0.62664938173 0.139801747147 -6.66877488399 156 158 159 255 
-0.621985448687 0.139801747147 -6.66663587893 152 162 164 255 
-0.617321515643 0.139801747147 -6.66449687387 153 169 170 255 
-0.6126575826 0.139801747147 -6.66235786881 138 146 144 255 
-0.607993649556 0.139801747147 -6.66021886375 142 152 151 255 
-0.603329716513 0.139801747147 -6.6580798587 135 140 138 255 
-0.598665783469 0.139801747147 -6.65594085364 143 155 155 255 
-0.594001850426 0.139801747147 -6.65380184858 142 154 155 255 
-0.589337917382 0.139801747147 -6.65166284352 158 175 176 255 
-0.584673984339 0.139801747147 -6.64952383846 159 179 181 255 
-0.580010051295 0.139801747147 -6.6473848334 159 179 181 255 
-0.575346118252 0.139801747147 -6.64524582834 146 162 164 255 
-0.570682185208 0.139801747147 -6.64310682328 141 153 153 255 
-0.566018252165 0.139801747147 -6.64096781822 136 141 139 255 
-0.561354319121 0.139801747147 -6.63882881316 129 131 128 255 
-0.556690386078 0.139801747147 -6.63668980811 133 139 137 255 
-0.552026453034 0.139801747147 -6.63455080305 126 134 133 255 
-0.547362519991 0.139801747147 -6.63241179799 136 151 151 255 
-0.542698586947 0.139801747147 -6.63027279293 128 144 143 255 
-0.538034653904 0.139801747147 -6.62813378787 112 124 123 255 
-0.53337072086 0.139801747147 -6.62599478281 113 124 125 255 
-0.528706787817 0.139801747147 -6.62385577775 114 125 127 255 
-0.524042854773 0.139801747147 -6.62171677269 111 118 119 255 
-0.51937892173 0.139801747147 -6.61957776763 118 127 128 255 
-0.514714988686 0.139801747147 -6.61743876257 119 127 126 255 
-0.510051055643 0.139801747147 -6.61529975751 133 143 143 255 
-0.505387122599 0.139801747147 -6.61316075246 176 200 205 255 
-0.500723189556 0.139801747147 -6.6110217474 175 197 200 255 
-0.496059256512 0.139801747147 -6.60888274234 181 206 212 255 
-0.491395323469 0.139801747147 -6.60674373728 163 178 187 255 
-0.486731390425 0.139801747147 -6.60460473222 157 167 177 255 
-0.482067457382 0.139801747147 -6.60246572716 157 167 177 255 
-0.477403524338 0.139801747147 -6.6003267221 166 171 171 255 
-0.472739591294 0.139801747147 -6.59818771704 182 188 188 255 
-0.468075658251 0.139801747147 -6.59604871198 182 188 188 255 
-0.463411725207 0.139801747147 -6.59390970692 182 188 188 255 
-0.458747792164 0.139801747147 -6.59177070186 173 178 178 255 
-0.45408385912 0.139801747147 -6.58963169681 110 105 99 255 
-0.449419926077 0.139801747147 -6.58749269175 110 105 99 255 
-0.444755993033 0.139801747147 -6.58535368669 112 107 102 255 
-0.44009205999 0.139801747147 -6.58321468163 119 113 108 255 
-0.435428126946 0.139801747147 -6.58107567657 119 113 108 255 
-0.430764193903 0.139801747147 -6.57893667151 112 107 102 255 
-0.426100260859 0.139801747147 -6.57679766645 112 107 103 255 
-0.421436327816 0.139801747147 -6.57465866139 112 107 103 255 
-0.416772394772 0.139801747147 -6.57251965633 107 102 99 255 
-0.412108461729 0.139801747147 -6.57038065127 119 114 111 255 
-0.407444528685 0.139801747147 -6.56824164622 126 122 119 255 
-0.402780595642 0.139801747147 -6.56610264116 125 119 116 255 
-0.398116662598 0.139801747147 -6.5639636361 101 98 96 255 
-0.393452729555 0.139801747147 -6.56182463104 101 98 96 255 
-0.388788796511 0.139801747147 -6.55968562598 100 97 94 255 
-0.384124863468 0.139801747147 -6.55754662092 95 93 91 255 
-0.379460930424 0.139801747147 -6.55540761586 101 98 95 255 
-0.374796997381 0.139801747147 -6.5532686108 102 100 97 255 
-0.370133064337 0.139801747147 -6.55112960574 106 104 100 255 
-0.365469131294 0.139801747147 -6.54899060068 103 102 100 255 
-0.36080519825 0.139801747147 -6.54685159562 151 158 156 255 
-0.356141265207 0.139801747147 -6.54471259057 151 158 156 255 
-0.351477332163 0.139801747147 -6.54257358551 151 158 156 255 
-0.34681339912 0.139801747147 -6.54043458045 159 175 177 255 
-0.342149466076 0.139801747147 -6.53829557539 159 175 177 255 
-0.337485533033 0.139801747147 -6.53615657033 167 191 199 255 
-0.332821599989 0.139801747147 -6.53401756527 165 190 201 255 
-0.328157666946 0.139801747147 -6.53187856021 165 193 208 255 
-0.323493733902 0.139801747147 -6.52973955515 157 177 186 255 
-0.318829800859 0.139801747147 -6.52760055009 152 165 170 255 
-0.314165867815 0.139801747147 -6.52546154503 152 165 170 255 
-0.309501934772 0.139801747147 -6.52332253998 152 165 169 255 
-0.304838001728 0.139801747147 -6.52118353492 152 165 169 255 
-0.999764025211 0.143364653091 -6.83996449712 88 90 92 255 
-0.995100092168 0.143364653091 -6.83782549206 88 90 92 255 
-0.990436159124 0.143364653091 -6.83568648701 88 90 92 255 
-0.985772226081 0.143364653091 -6.83354748195 88 90 92 255 
-0.981108293037 0.143364653091 -6.83140847689 88 90 92 255 
-0.976444359994 0.143364653091 -6.82926947183 88 90 92 255 
-0.97178042695 0.143364653091 -6.82713046677 88 90 92 255 
-0.967116493907 0.143364653091 -6.82499146171 88 90 92 255 
-0.962452560863 0.143364653091 -6.82285245665 88 90 92 255 
-0.95778862782 0.143364653091 -6.82071345159 97 98 98 255 
-0.953124694776 0.143364653091 -6.81857444653 97 98 98 255 
-0.948460761733 0.143364653091 -6.81643544147 95 95 89 255 
-0.943796828689 0.143364653091 -6.81429643641 95 95 89 255 
-0.939132895646 0.143364653091 -6.81215743136 95 95 89 255 
-0.934468962602 0.143364653091 -6.8100184263 95 95 89 255 
-0.929805029559 0.143364653091 -6.80787942124 87 87 78 255 
-0.925141096515 0.143364653091 -6.80574041618 78 77 68 255 
-0.920477163472 0.143364653091 -6.80360141112 78 77 68 255 
-0.915813230428 0.143364653091 -6.80146240606 112 110 102 255 
-0.911149297385 0.143364653091 -6.799323401 112 110 102 255 
-0.906485364341 0.143364653091 -6.79718439594 117 115 111 255 
-0.901821431298 0.143364653091 -6.79504539088 117 115 111 255 
-0.897157498254 0.143364653091 -6.79290638582 117 115 111 255 
-0.892493565211 0.143364653091 -6.79076738077 126 122 119 255 
-0.887829632167 0.143364653091 -6.78862837571 126 122 119 255 
-0.883165699124 0.143364653091 -6.78648937065 126 122 119 255 
-0.87850176608 0.143364653091 -6.78435036559 126 122 119 255 
-0.873837833037 0.143364653091 -6.78221136053 126 122 119 255 
-0.869173899993 0.143364653091 -6.78007235547 126 122 119 255 
-0.864509966949 0.143364653091 -6.77793335041 126 122 119 255 
-0.859846033906 0.143364653091 -6.77579434535 126 122 119 255 
-0.855182100862 0.143364653091 -6.77365534029 126 122 119 255 
-0.850518167819 0.143364653091 -6.77151633523 126 122 119 255 
-0.845854234775 0.143364653091 -6.76937733017 126 122 119 255 
-0.841190301732 0.143364653091 -6.76723832512 123 118 113 255 
-0.836526368688 0.143364653091 -6.76509932006 123 118 113 255 
-0.831862435645 0.143364653091 -6.762960315 114 111 105 255 
-0.827198502601 0.143364653091 -6.76082130994 115 113 107 255 
-0.822534569558 0.143364653091 -6.75868230488 115 113 107 255 
-0.817870636514 0.143364653091 -6.75654329982 117 114 109 255 
-0.813206703471 0.143364653091 -6.75440429476 113 111 106 255 
-0.808542770427 0.143364653091 -6.7522652897 113 111 108 255 
-0.803878837384 0.143364653091 -6.75012628464 114 113 110 255 
-0.79921490434 0.143364653091 -6.74798727958 119 118 117 255 
-0.794550971297 0.143364653091 -6.74584827453 128 129 128 255 
-0.789887038253 0.143364653091 -6.74370926947 128 129 128 255 
-0.78522310521 0.143364653091 -6.74157026441 142 143 141 255 
-0.780559172166 0.143364653091 -6.73943125935 142 143 141 255 
-0.775895239123 0.143364653091 -6.73729225429 147 148 146 255 
-0.771231306079 0.143364653091 -6.73515324923 140 143 141 255 
-0.766567373036 0.143364653091 -6.73301424417 140 148 148 255 
-0.761903439992 0.143364653091 -6.73087523911 140 148 148 255 
-0.757239506949 0.143364653091 -6.72873623405 140 148 148 255 
-0.752575573905 0.143364653091 -6.72659722899 154 170 171 255 
-0.747911640862 0.143364653091 -6.72445822393 154 170 171 255 
-0.743247707818 0.143364653091 -6.72231921888 156 170 169 255 
-0.738583774775 0.143364653091 -6.72018021382 164 178 179 255 
-0.733919841731 0.143364653091 -6.71804120876 153 168 167 255 
-0.729255908688 0.143364653091 -6.7159022037 135 144 143 255 
-0.724591975644 0.143364653091 -6.71376319864 135 144 143 255 
-0.719928042601 0.143364653091 -6.71162419358 118 125 124 255 
-0.715264109557 0.143364653091 -6.70948518852 125 133 134 255 
-0.710600176514 0.143364653091 -6.70734618346 131 142 144 255 
-0.70593624347 0.143364653091 -6.7052071784 131 146 148 255 
-0.701272310427 0.143364653091 -6.70306817334 129 143 147 255 
-0.696608377383 0.143364653091 -6.70092916828 129 143 147 255 
-0.69194444434 0.143364653091 -6.69879016323 144 164 169 255 
-0.687280511296 0.143364653091 -6.69665115817 143 159 163 255 
-0.682616578253 0.143364653091 -6.69451215311 162 183 190 255 
-0.677952645209 0.143364653091 -6.69237314805 148 162 171 255 
-0.673288712165 0.143364653091 -6.69023414299 139 145 150 255 
-0.668624779122 0.143364653091 -6.68809513793 139 145 150 255 
-0.663960846078 0.143364653091 -6.68595613287 139 145 148 255 
-0.659296913035 0.143364653091 -6.68381712781 133 139 141 255 
-0.654632979991 0.143364653091 -6.68167812275 126 131 133 255 
-0.649969046948 0.143364653091 -6.67953911769 132 140 143 255 
-0.645305113904 0.143364653091 -6.67740011264 138 149 153 255 
-0.640641180861 0.143364653091 -6.67526110758 135 142 146 255 
-0.635977247817 0.143364653091 -6.67312210252 143 148 152 255 
-0.631313314774 0.143364653091 -6.67098309746 147 154 157 255 
-0.62664938173 0.143364653091 -6.6688440924 145 149 151 255 
-0.621985448687 0.143364653091 -6.66670508734 158 178 184 255 
-0.617321515643 0.143364653091 -6.66456608228 153 169 170 255 
-0.6126575826 0.143364653091 -6.66242707722 149 162 162 255 
-0.607993649556 0.143364653091 -6.66028807216 149 162 162 255 
-0.603329716513 0.143364653091 -6.6581490671 137 146 145 255 
-0.598665783469 0.143364653091 -6.65601006204 143 155 155 255 
-0.594001850426 0.143364653091 -6.65387105699 152 169 171 255 
-0.589337917382 0.143364653091 -6.65173205193 158 175 176 255 
-0.584673984339 0.143364653091 -6.64959304687 159 179 181 255 
-0.580010051295 0.143364653091 -6.64745404181 159 179 181 255 
-0.575346118252 0.143364653091 -6.64531503675 152 170 172 255 
-0.570682185208 0.143364653091 -6.64317603169 141 153 153 255 
-0.566018252165 0.143364653091 -6.64103702663 133 141 140 255 
-0.561354319121 0.143364653091 -6.63889802157 134 143 142 255 
-0.556690386078 0.143364653091 -6.63675901651 131 139 138 255 
-0.552026453034 0.143364653091 -6.63462001145 144 163 164 255 
-0.547362519991 0.143364653091 -6.6324810064 159 185 186 255 
-0.542698586947 0.143364653091 -6.63034200134 128 144 143 255 
-0.538034653904 0.143364653091 -6.62820299628 128 144 143 255 
-0.53337072086 0.143364653091 -6.62606399122 113 124 125 255 
-0.528706787817 0.143364653091 -6.62392498616 114 125 127 255 
-0.524042854773 0.143364653091 -6.6217859811 111 118 119 255 
-0.51937892173 0.143364653091 -6.61964697604 118 127 128 255 
-0.514714988686 0.143364653091 -6.61750797098 143 157 158 255 
-0.510051055643 0.143364653091 -6.61536896592 143 157 158 255 
-0.505387122599 0.143364653091 -6.61322996086 176 200 205 255 
-0.500723189556 0.143364653091 -6.6110909558 198 230 235 255 
-0.496059256512 0.143364653091 -6.60895195075 181 206 212 255 
-0.491395323469 0.143364653091 -6.60681294569 163 178 187 255 
-0.486731390425 0.143364653091 -6.60467394063 157 167 177 255 
-0.482067457382 0.143364653091 -6.60253493557 149 155 159 255 
-0.477403524338 0.143364653091 -6.60039593051 182 188 188 255 
-0.472739591294 0.143364653091 -6.59825692545 182 188 188 255 
-0.468075658251 0.143364653091 -6.59611792039 182 188 188 255 
-0.463411725207 0.143364653091 -6.59397891533 182 188 188 255 
-0.458747792164 0.143364653091 -6.59183991027 182 188 188 255 
-0.45408385912 0.143364653091 -6.58970090521 164 168 167 255 
-0.449419926077 0.143364653091 -6.58756190016 110 105 99 255 
-0.444755993033 0.143364653091 -6.5854228951 112 107 102 255 
-0.44009205999 0.143364653091 -6.58328389004 119 113 108 255 
-0.435428126946 0.143364653091 -6.58114488498 108 103 98 255 
-0.430764193903 0.143364653091 -6.57900587992 112 107 102 255 
-0.426100260859 0.143364653091 -6.57686687486 112 107 103 255 
-0.421436327816 0.143364653091 -6.5747278698 108 103 99 255 
-0.416772394772 0.143364653091 -6.57258886474 107 102 99 255 
-0.412108461729 0.143364653091 -6.57044985968 112 107 104 255 
-0.407444528685 0.143364653091 -6.56831085462 120 116 113 255 
-0.402780595642 0.143364653091 -6.56617184956 111 107 105 255 
-0.398116662598 0.143364653091 -6.56403284451 101 98 96 255 
-0.393452729555 0.143364653091 -6.56189383945 101 98 96 255 
-0.388788796511 0.143364653091 -6.55975483439 100 97 94 255 
-0.384124863468 0.143364653091 -6.55761582933 100 97 94 255 
-0.379460930424 0.143364653091 -6.55547682427 93 91 88 255 
-0.374796997381 0.143364653091 -6.55333781921 95 93 91 255 
-0.370133064337 0.143364653091 -6.55119881415 102 100 97 255 
-0.365469131294 0.143364653091 -6.54905980909 118 121 118 255 
-0.36080519825 0.143364653091 -6.54692080403 151 158 156 255 
-0.356141265207 0.143364653091 -6.54478179897 151 158 156 255 
-0.351477332163 0.143364653091 -6.54264279392 159 175 177 255 
-0.34681339912 0.143364653091 -6.54050378886 159 175 177 255 
-0.342149466076 0.143364653091 -6.5383647838 170 192 198 255 
-0.337485533033 0.143364653091 -6.53622577874 175 202 213 255 
-0.332821599989 0.143364653091 -6.53408677368 165 193 208 255 
-0.328157666946 0.143364653091 -6.53194776862 164 194 210 255 
-0.323493733902 0.143364653091 -6.52980876356 157 177 186 255 
-0.318829800859 0.143364653091 -6.5276697585 157 177 186 255 
-0.314165867815 0.143364653091 -6.52553075344 157 177 186 255 
-0.309501934772 0.143364653091 -6.52339174838 152 165 169 255 
-0.304838001728 0.143364653091 -6.52125274332 152 165 169 255 
-0.999764025211 0.146927559036 -6.84003370553 88 90 92 255 
-0.995100092168 0.146927559036 -6.83789470047 88 90 92 255 
-0.990436159124 0.146927559036 -6.83575569541 88 90 92 255 
-0.985772226081 0.146927559036 -6.83361669035 88 90 92 255 
-0.981108293037 0.146927559036 -6.8314776853 88 90 92 255 
-0.976444359994 0.146927559036 -6.82933868024 88 90 92 255 
-0.97178042695 0.146927559036 -6.82719967518 88 90 92 255 
-0.967116493907 0.146927559036 -6.82506067012 88 90 92 255 
-0.962452560863 0.146927559036 -6.82292166506 88 90 92 255 
-0.95778862782 0.146927559036 -6.82078266 97 98 98 255 
-0.953124694776 0.146927559036 -6.81864365494 97 98 98 255 
-0.948460761733 0.146927559036 -6.81650464988 95 95 89 255 
-0.943796828689 0.146927559036 -6.81436564482 95 95 89 255 
-0.939132895646 0.146927559036 -6.81222663976 95 95 89 255 
-0.934468962602 0.146927559036 -6.8100876347 95 95 89 255 
-0.929805029559 0.146927559036 -6.80794862965 95 95 89 255 
-0.925141096515 0.146927559036 -6.80580962459 78 77 68 255 
-0.920477163472 0.146927559036 -6.80367061953 96 96 87 255 
-0.915813230428 0.146927559036 -6.80153161447 112 110 102 255 
-0.911149297385 0.146927559036 -6.79939260941 117 115 111 255 
-0.906485364341 0.146927559036 -6.79725360435 117 115 111 255 
-0.901821431298 0.146927559036 -6.79511459929 117 115 111 255 
-0.897157498254 0.146927559036 -6.79297559423 160 156 150 255 
-0.892493565211 0.146927559036 -6.79083658917 160 156 150 255 
-0.887829632167 0.146927559036 -6.78869758411 160 156 150 255 
-0.883165699124 0.146927559036 -6.78655857906 160 156 150 255 
-0.87850176608 0.146927559036 -6.784419574 126 122 119 255 
-0.873837833037 0.146927559036 -6.78228056894 126 122 119 255 
-0.869173899993 0.146927559036 -6.78014156388 126 122 119 255 
-0.864509966949 0.146927559036 -6.77800255882 126 122 119 255 
-0.859846033906 0.146927559036 -6.77586355376 126 122 119 255 
-0.855182100862 0.146927559036 -6.7737245487 126 122 119 255 
-0.850518167819 0.146927559036 -6.77158554364 126 122 119 255 
-0.845854234775 0.146927559036 -6.76944653858 150 145 139 255 
-0.841190301732 0.146927559036 -6.76730753352 150 145 139 255 
-0.836526368688 0.146927559036 -6.76516852846 165 168 163 255 
-0.831862435645 0.146927559036 -6.76302952341 111 109 103 255 
-0.827198502601 0.146927559036 -6.76089051835 115 113 107 255 
-0.822534569558 0.146927559036 -6.75875151329 115 113 107 255 
-0.817870636514 0.146927559036 -6.75661250823 115 113 107 255 
-0.813206703471 0.146927559036 -6.75447350317 113 111 106 255 
-0.808542770427 0.146927559036 -6.75233449811 113 111 108 255 
-0.803878837384 0.146927559036 -6.75019549305 123 128 127 255 
-0.79921490434 0.146927559036 -6.74805648799 130 135 134 255 
-0.794550971297 0.146927559036 -6.74591748293 130 135 134 255 
-0.789887038253 0.146927559036 -6.74377847787 128 129 128 255 
-0.78522310521 0.146927559036 -6.74163947282 128 129 128 255 
-0.780559172166 0.146927559036 -6.73950046776 142 143 141 255 
-0.775895239123 0.146927559036 -6.7373614627 142 143 141 255 
-0.771231306079 0.146927559036 -6.73522245764 137 140 139 255 
-0.766567373036 0.146927559036 -6.73308345258 159 178 183 255 
-0.761903439992 0.146927559036 -6.73094444752 159 178 183 255 
-0.757239506949 0.146927559036 -6.72880544246 154 172 176 255 
-0.752575573905 0.146927559036 -6.7266664374 154 170 171 255 
-0.747911640862 0.146927559036 -6.72452743234 175 198 199 255 
-0.743247707818 0.146927559036 -6.72238842728 176 198 198 255 
-0.738583774775 0.146927559036 -6.72024942222 153 168 167 255 
-0.733919841731 0.146927559036 -6.71811041717 153 168 167 255 
-0.729255908688 0.146927559036 -6.71597141211 135 144 143 255 
-0.724591975644 0.146927559036 -6.71383240705 135 144 143 255 
-0.719928042601 0.146927559036 -6.71169340199 141 156 160 255 
-0.715264109557 0.146927559036 -6.70955439693 141 156 160 255 
-0.710600176514 0.146927559036 -6.70741539187 149 166 170 255 
-0.70593624347 0.146927559036 -6.70527638681 131 146 148 255 
-0.701272310427 0.146927559036 -6.70313738175 129 143 147 255 
-0.696608377383 0.146927559036 -6.70099837669 129 143 147 255 
-0.69194444434 0.146927559036 -6.69885937163 144 164 169 255 
-0.687280511296 0.146927559036 -6.69672036658 158 186 195 255 
-0.682616578253 0.146927559036 -6.69458136152 172 201 215 255 
-0.677952645209 0.146927559036 -6.69244235646 158 181 194 255 
-0.673288712165 0.146927559036 -6.6903033514 162 191 206 255 
-0.668624779122 0.146927559036 -6.68816434634 149 166 175 255 
-0.663960846078 0.146927559036 -6.68602534128 139 145 148 255 
-0.659296913035 0.146927559036 -6.68388633622 127 133 134 255 
-0.654632979991 0.146927559036 -6.68174733116 134 146 149 255 
-0.649969046948 0.146927559036 -6.6796083261 138 149 153 255 
-0.645305113904 0.146927559036 -6.67746932104 138 149 153 255 
-0.640641180861 0.146927559036 -6.67533031598 135 142 146 255 
-0.635977247817 0.146927559036 -6.67319131093 147 154 157 255 
-0.631313314774 0.146927559036 -6.67105230587 147 154 157 255 
-0.62664938173 0.146927559036 -6.66891330081 162 176 182 255 
-0.621985448687 0.146927559036 -6.66677429575 166 191 198 255 
-0.617321515643 0.146927559036 -6.66463529069 177 208 216 255 
-0.6126575826 0.146927559036 -6.66249628563 177 208 216 255 
-0.607993649556 0.146927559036 -6.66035728057 162 182 184 255 
-0.603329716513 0.146927559036 -6.65821827551 150 166 166 255 
-0.598665783469 0.146927559036 -6.65607927045 152 169 171 255 
-0.594001850426 0.146927559036 -6.65394026539 170 196 199 255 
-0.589337917382 0.146927559036 -6.65180126034 167 191 194 255 
-0.584673984339 0.146927559036 -6.64966225528 179 205 208 255 
-0.580010051295 0.146927559036 -6.64752325022 170 199 207 255 
-0.575346118252 0.146927559036 -6.64538424516 165 193 202 255 
-0.570682185208 0.146927559036 -6.6432452401 139 154 155 255 
-0.566018252165 0.146927559036 -6.64110623504 133 141 140 255 
-0.561354319121 0.146927559036 -6.63896722998 134 143 142 255 
-0.556690386078 0.146927559036 -6.63682822492 153 172 174 255 
-0.552026453034 0.146927559036 -6.63468921986 167 196 200 255 
-0.547362519991 0.146927559036 -6.6325502148 159 185 186 255 
-0.542698586947 0.146927559036 -6.63041120974 153 176 177 255 
-0.538034653904 0.146927559036 -6.62827220469 128 144 143 255 
-0.53337072086 0.146927559036 -6.62613319963 113 124 125 255 
-0.528706787817 0.146927559036 -6.62399419457 114 125 127 255 
-0.524042854773 0.146927559036 -6.62185518951 111 118 119 255 
-0.51937892173 0.146927559036 -6.61971618445 118 127 128 255 
-0.514714988686 0.146927559036 -6.61757717939 143 157 158 255 
-0.510051055643 0.146927559036 -6.61543817433 168 192 196 255 
-0.505387122599 0.146927559036 -6.61329916927 176 200 205 255 
-0.500723189556 0.146927559036 -6.61116016421 198 230 235 255 
-0.496059256512 0.146927559036 -6.60902115915 198 230 235 255 
-0.491395323469 0.146927559036 -6.60688215409 169 188 196 255 
-0.486731390425 0.146927559036 -6.60474314904 148 156 164 255 
-0.482067457382 0.146927559036 -6.60260414398 165 172 175 255 
-0.477403524338 0.146927559036 -6.60046513892 182 188 188 255 
-0.472739591294 0.146927559036 -6.59832613386 182 188 188 255 
-0.468075658251 0.146927559036 -6.5961871288 182 188 188 255 
-0.463411725207 0.146927559036 -6.59404812374 182 188 188 255 
-0.458747792164 0.146927559036 -6.59190911868 182 188 188 255 
-0.45408385912 0.146927559036 -6.58977011362 173 178 178 255 
-0.449419926077 0.146927559036 -6.58763110856 137 137 134 255 
-0.444755993033 0.146927559036 -6.5854921035 116 112 106 255 
-0.44009205999 0.146927559036 -6.58335309845 113 108 103 255 
-0.435428126946 0.146927559036 -6.58121409339 108 103 98 255 
-0.430764193903 0.146927559036 -6.57907508833 112 107 103 255 
-0.426100260859 0.146927559036 -6.57693608327 112 107 103 255 
-0.421436327816 0.146927559036 -6.57479707821 108 103 99 255 
-0.416772394772 0.146927559036 -6.57265807315 107 102 99 255 
-0.412108461729 0.146927559036 -6.57051906809 112 107 104 255 
-0.407444528685 0.146927559036 -6.56838006303 97 93 91 255 
-0.402780595642 0.146927559036 -6.56624105797 107 102 100 255 
-0.398116662598 0.146927559036 -6.56410205291 101 98 96 255 
-0.393452729555 0.146927559036 -6.56196304785 101 98 96 255 
-0.388788796511 0.146927559036 -6.5598240428 100 97 94 255 
-0.384124863468 0.146927559036 -6.55768503774 100 97 94 255 
-0.379460930424 0.146927559036 -6.55554603268 100 97 94 255 
-0.374796997381 0.146927559036 -6.55340702762 93 91 88 255 
-0.370133064337 0.146927559036 -6.55126802256 94 92 90 255 
-0.365469131294 0.146927559036 -6.5491290175 130 130 126 255 
-0.36080519825 0.146927559036 -6.54699001244 151 158 156 255 
-0.356141265207 0.146927559036 -6.54485100738 151 158 156 255 
-0.351477332163 0.146927559036 -6.54271200232 159 175 177 255 
-0.34681339912 0.146927559036 -6.54057299726 159 175 177 255 
-0.342149466076 0.146927559036 -6.53843399221 171 195 204 255 
-0.337485533033 0.146927559036 -6.53629498715 175 204 219 255 
-0.332821599989 0.146927559036 -6.53415598209 164 194 210 255 
-0.328157666946 0.146927559036 -6.53201697703 162 195 215 255 
-0.323493733902 0.146927559036 -6.52987797197 162 195 215 255 
-0.318829800859 0.146927559036 -6.52773896691 162 195 215 255 
-0.314165867815 0.146927559036 -6.52559996185 156 180 193 255 
-0.309501934772 0.146927559036 -6.52346095679 156 180 193 255 
-0.304838001728 0.146927559036 -6.52132195173 156 180 193 255 
-0.999764025211 0.15049046498 -6.84010291394 88 90 92 255 
-0.995100092168 0.15049046498 -6.83796390888 88 90 92 255 
-0.990436159124 0.15049046498 -6.83582490382 88 90 92 255 
-0.985772226081 0.15049046498 -6.83368589876 88 90 92 255 
-0.981108293037 0.15049046498 -6.8315468937 88 90 92 255 
-0.976444359994 0.15049046498 -6.82940788864 88 90 92 255 
-0.97178042695 0.15049046498 -6.82726888359 88 90 92 255 
-0.967116493907 0.15049046498 -6.82512987853 88 90 92 255 
-0.962452560863 0.15049046498 -6.82299087347 88 90 92 255 
-0.95778862782 0.15049046498 -6.82085186841 97 98 98 255 
-0.953124694776 0.15049046498 -6.81871286335 97 98 98 255 
-0.948460761733 0.15049046498 -6.81657385829 95 95 89 255 
-0.943796828689 0.15049046498 -6.81443485323 95 95 89 255 
-0.939132895646 0.15049046498 -6.81229584817 95 95 89 255 
-0.934468962602 0.15049046498 -6.81015684311 95 95 89 255 
-0.929805029559 0.15049046498 -6.80801783805 95 95 89 255 
-0.925141096515 0.15049046498 -6.805878833 87 87 78 255 
-0.920477163472 0.15049046498 -6.80373982794 112 108 99 255 
-0.915813230428 0.15049046498 -6.80160082288 112 108 99 255 
-0.911149297385 0.15049046498 -6.79946181782 117 115 111 255 
-0.906485364341 0.15049046498 -6.79732281276 117 115 111 255 
-0.901821431298 0.15049046498 -6.7951838077 160 156 150 255 
-0.897157498254 0.15049046498 -6.79304480264 160 156 150 255 
-0.892493565211 0.15049046498 -6.79090579758 160 156 150 255 
-0.887829632167 0.15049046498 -6.78876679252 160 156 150 255 
-0.883165699124 0.15049046498 -6.78662778746 160 156 150 255 
-0.87850176608 0.15049046498 -6.7844887824 160 156 150 255 
-0.873837833037 0.15049046498 -6.78234977735 160 156 150 255 
-0.869173899993 0.15049046498 -6.78021077229 160 156 150 255 
-0.864509966949 0.15049046498 -6.77807176723 160 156 150 255 
-0.859846033906 0.15049046498 -6.77593276217 152 147 139 255 
-0.855182100862 0.15049046498 -6.77379375711 152 147 139 255 
-0.850518167819 0.15049046498 -6.77165475205 152 147 139 255 
-0.845854234775 0.15049046498 -6.76951574699 150 145 139 255 
-0.841190301732 0.15049046498 -6.76737674193 168 170 165 255 
-0.836526368688 0.15049046498 -6.76523773687 165 168 163 255 
-0.831862435645 0.15049046498 -6.76309873181 137 141 137 255 
-0.827198502601 0.15049046498 -6.76095972676 115 113 107 255 
-0.822534569558 0.15049046498 -6.7588207217 115 113 107 255 
-0.817870636514 0.15049046498 -6.75668171664 114 112 107 255 
-0.813206703471 0.15049046498 -6.75454271158 113 111 106 255 
-0.808542770427 0.15049046498 -6.75240370652 110 109 106 255 
-0.803878837384 0.15049046498 -6.75026470146 123 128 127 255 
-0.79921490434 0.15049046498 -6.7481256964 130 135 134 255 
-0.794550971297 0.15049046498 -6.74598669134 130 135 134 255 
-0.789887038253 0.15049046498 -6.74384768628 130 135 134 255 
-0.78522310521 0.15049046498 -6.74170868122 141 146 145 255 
-0.780559172166 0.15049046498 -6.73956967616 141 146 145 255 
-0.775895239123 0.15049046498 -6.73743067111 133 135 134 255 
-0.771231306079 0.15049046498 -6.73529166605 146 154 154 255 
-0.766567373036 0.15049046498 -6.73315266099 159 178 183 255 
-0.761903439992 0.15049046498 -6.73101365593 174 199 206 255 
-0.757239506949 0.15049046498 -6.72887465087 174 199 206 255 
-0.752575573905 0.15049046498 -6.72673564581 174 199 206 255 
-0.747911640862 0.15049046498 -6.72459664075 175 198 199 255 
-0.743247707818 0.15049046498 -6.72245763569 176 198 198 255 
-0.738583774775 0.15049046498 -6.72031863063 176 198 198 255 
-0.733919841731 0.15049046498 -6.71817962557 153 168 167 255 
-0.729255908688 0.15049046498 -6.71604062051 153 168 167 255 
-0.724591975644 0.15049046498 -6.71390161546 135 144 143 255 
-0.719928042601 0.15049046498 -6.7117626104 141 156 160 255 
-0.715264109557 0.15049046498 -6.70962360534 141 156 160 255 
-0.710600176514 0.15049046498 -6.70748460028 149 166 170 255 
-0.70593624347 0.15049046498 -6.70534559522 150 169 175 255 
-0.701272310427 0.15049046498 -6.70320659016 129 143 147 255 
-0.696608377383 0.15049046498 -6.7010675851 144 164 169 255 
-0.69194444434 0.15049046498 -6.69892858004 144 164 169 255 
-0.687280511296 0.15049046498 -6.69678957498 173 206 221 255 
-0.682616578253 0.15049046498 -6.69465056992 186 226 247 255 
-0.677952645209 0.15049046498 -6.69251156487 173 207 226 255 
-0.673288712165 0.15049046498 -6.69037255981 162 191 206 255 
-0.668624779122 0.15049046498 -6.68823355475 162 191 206 255 
-0.663960846078 0.15049046498 -6.68609454969 149 166 175 255 
-0.659296913035 0.15049046498 -6.68395554463 156 180 187 255 
-0.654632979991 0.15049046498 -6.68181653957 155 178 186 255 
-0.649969046948 0.15049046498 -6.67967753451 153 173 180 255 
-0.645305113904 0.15049046498 -6.67753852945 138 149 153 255 
-0.640641180861 0.15049046498 -6.67539952439 142 155 158 255 
-0.635977247817 0.15049046498 -6.67326051933 140 148 151 255 
-0.631313314774 0.15049046498 -6.67112151427 161 175 181 255 
-0.62664938173 0.15049046498 -6.66898250922 162 176 182 255 
-0.621985448687 0.15049046498 -6.66684350416 177 208 216 255 
-0.617321515643 0.15049046498 -6.6647044991 177 208 216 255 
-0.6126575826 0.15049046498 -6.66256549404 177 208 216 255 
-0.607993649556 0.15049046498 -6.66042648898 175 204 211 255 
-0.603329716513 0.15049046498 -6.65828748392 163 184 187 255 
-0.598665783469 0.15049046498 -6.65614847886 152 171 173 255 
-0.594001850426 0.15049046498 -6.6540094738 170 196 199 255 
-0.589337917382 0.15049046498 -6.65187046874 167 191 194 255 
-0.584673984339 0.15049046498 -6.64973146368 179 205 208 255 
-0.580010051295 0.15049046498 -6.64759245863 170 199 207 255 
-0.575346118252 0.15049046498 -6.64545345357 165 193 202 255 
-0.570682185208 0.15049046498 -6.64331444851 152 174 182 255 
-0.566018252165 0.15049046498 -6.64117544345 137 151 151 255 
-0.561354319121 0.15049046498 -6.63903643839 139 153 152 255 
-0.556690386078 0.15049046498 -6.63689743333 154 177 180 255 
-0.552026453034 0.15049046498 -6.63475842827 167 196 200 255 
-0.547362519991 0.15049046498 -6.63261942321 176 208 211 255 
-0.542698586947 0.15049046498 -6.63048041815 153 176 177 255 
-0.538034653904 0.15049046498 -6.62834141309 128 144 143 255 
-0.53337072086 0.15049046498 -6.62620240803 113 124 125 255 
-0.528706787817 0.15049046498 -6.62406340298 114 125 127 255 
-0.524042854773 0.15049046498 -6.62192439792 111 118 119 255 
-0.51937892173 0.15049046498 -6.61978539286 118 127 128 255 
-0.514714988686 0.15049046498 -6.6176463878 165 189 192 255 
-0.510051055643 0.15049046498 -6.61550738274 181 210 215 255 
-0.505387122599 0.15049046498 -6.61336837768 198 230 235 255 
-0.500723189556 0.15049046498 -6.61122937262 198 230 235 255 
-0.496059256512 0.15049046498 -6.60909036756 198 230 235 255 
-0.491395323469 0.15049046498 -6.6069513625 181 206 212 255 
-0.486731390425 0.15049046498 -6.60481235744 160 175 184 255 
-0.482067457382 0.15049046498 -6.60267335239 173 185 188 255 
-0.477403524338 0.15049046498 -6.60053434733 182 188 188 255 
-0.472739591294 0.15049046498 -6.59839534227 182 188 188 255 
-0.468075658251 0.15049046498 -6.59625633721 182 188 188 255 
-0.463411725207 0.15049046498 -6.59411733215 182 188 188 255 
-0.458747792164 0.15049046498 -6.59197832709 182 188 188 255 
-0.45408385912 0.15049046498 -6.58983932203 182 188 188 255 
-0.449419926077 0.15049046498 -6.58770031697 163 167 167 255 
-0.444755993033 0.15049046498 -6.58556131191 116 112 106 255 
-0.44009205999 0.15049046498 -6.58342230685 113 108 103 255 
-0.435428126946 0.15049046498 -6.58128330179 108 103 98 255 
-0.430764193903 0.15049046498 -6.57914429674 112 107 103 255 
-0.426100260859 0.15049046498 -6.57700529168 108 103 99 255 
-0.421436327816 0.15049046498 -6.57486628662 108 103 99 255 
-0.416772394772 0.15049046498 -6.57272728156 107 102 99 255 
-0.412108461729 0.15049046498 -6.5705882765 112 107 104 255 
-0.407444528685 0.15049046498 -6.56844927144 97 93 91 255 
-0.402780595642 0.15049046498 -6.56631026638 101 98 96 255 
-0.398116662598 0.15049046498 -6.56417126132 101 98 96 255 
-0.393452729555 0.15049046498 -6.56203225626 101 98 96 255 
-0.388788796511 0.15049046498 -6.5598932512 100 97 94 255 
-0.384124863468 0.15049046498 -6.55775424615 100 97 94 255 
-0.379460930424 0.15049046498 -6.55561524109 100 97 94 255 
-0.374796997381 0.15049046498 -6.55347623603 93 91 88 255 
-0.370133064337 0.15049046498 -6.55133723097 94 92 90 255 
-0.365469131294 0.15049046498 -6.54919822591 140 147 147 255 
