ply
format ascii 1.0
comment VCGLIB generated
element vertex 655
property float x
property float y
property float z
property float nx
property float ny
property float nz
property uchar red
property uchar green
property uchar blue
property uchar alpha
element face 0
property list uchar int vertex_indices
end_header
-0.369665 0.11211 -6.55062 -0.539621 -0.0625593 0.839581 115 110 109 255 
-0.367827 0.111981 -6.5505 -0.647709 -0.422974 0.633693 119 113 113 255 
-0.363228 0.110483 -6.54855 -0.356756 0.197348 0.913115 124 119 117 255 
-0.362523 0.109155 -6.54844 -0.556937 -0.449486 0.698415 128 124 121 255 
-0.359702 0.104278 -6.54172 -0.237387 0.352986 0.905013 131 127 123 255 
-0.360466 0.109719 -6.54759 -0.562828 0.083684 0.822327 125 122 120 255 
-0.358096 0.106484 -6.54546 -0.419633 0.133436 0.897832 131 127 124 255 
-0.3554 0.105527 -6.5432 -0.505161 -0.239312 0.829182 132 129 128 255 
-0.347974 0.101942 -6.53682 -0.537617 -0.0738726 0.839947 107 109 116 255 
-0.347974 0.101942 -6.53682 -0.537617 -0.0738726 0.839947 107 109 116 255 
-0.344698 0.096969 -6.53206 -0.527407 -0.3966 0.751365 138 141 146 255 
-0.341046 0.0928525 -6.52693 0.00247067 -0.593811 0.8046 135 138 130 255 
-0.339644 0.0947286 -6.5279 -0.0832298 -0.588452 0.804237 145 149 150 255 
-0.33824 0.0933386 -6.52495 -0.00560555 -0.684849 0.728664 145 148 151 255 
-0.338245 0.0960147 -6.52839 -0.475176 0.0703562 0.877073 139 142 148 255 
-0.335229 0.0937268 -6.52774 -0.459616 -0.482835 0.745401 116 119 106 255 
-0.332883 0.0934408 -6.5259 -0.51598 -0.350941 0.781412 127 130 118 255 
-0.330444 0.0912319 -6.5249 -0.324959 -0.566302 0.757432 60 60 49 255 
-0.328148 0.0919803 -6.52376 0.139333 -0.155824 0.977909 86 88 74 255 
-0.325359 0.0898269 -6.52236 0.376884 -0.717992 0.585189 58 58 51 255 
-0.3192 0.090256 -6.52342 -0.724381 -0.635962 0.266127 73 72 76 255 
-0.314536 0.0889155 -6.52133 -0.632867 -0.623654 0.458841 92 89 87 255 
-0.309362 0.087864 -6.52058 0.556399 -0.724649 0.406575 78 75 69 255 
-0.307365 0.0872767 -6.52211 0.663355 -0.625925 0.410096 63 60 56 255 
-0.474607 0.150268 -6.60024 -0.500626 0.0900488 0.860967 209 220 226 255 
-0.472847 0.146924 -6.59833 -0.727996 -0.443191 0.523071 226 238 240 255 
-0.466017 0.138697 -6.58416 -0.411316 0.162443 0.896901 200 210 207 255 
-0.459753 0.133508 -6.57972 -0.177168 -0.784634 0.594106 126 128 119 255 
-0.456014 0.132509 -6.57588 -0.365797 -0.847918 0.383702 120 122 113 255 
-0.454092 0.130575 -6.57494 -0.458757 -0.121088 0.880273 124 123 116 255 
-0.447417 0.13117 -6.57503 -0.463884 -0.183059 0.866776 62 60 49 255 
-0.448124 0.132034 -6.57634 -0.414696 -0.65869 0.627818 64 62 51 255 
-0.444642 0.131482 -6.57535 -0.4364 -0.604999 0.665982 73 71 64 255 
-0.444225 0.131295 -6.57706 -0.387859 -0.728921 0.564127 80 77 71 255 
-0.437642 0.132363 -6.57909 -0.0558611 -0.66826 0.741828 85 82 76 255 
-0.435005 0.132633 -6.57902 0.103707 -0.808415 0.579405 90 86 81 255 
-0.434485 0.131857 -6.57809 -0.406562 -0.690565 0.598186 91 87 82 255 
-0.428948 0.128144 -6.57462 -0.590211 -0.547853 0.592881 109 103 97 255 
-0.426581 0.128512 -6.5728 -0.551336 -0.635821 0.540147 109 103 98 255 
-0.420564 0.127803 -6.57408 -0.444779 -0.315362 0.838283 134 128 124 255 
-0.418346 0.128735 -6.57449 -0.678692 -0.468617 0.565487 134 129 125 255 
-0.412791 0.125272 -6.57005 -0.359921 0.0925696 0.928379 142 136 132 255 
-0.408476 0.122586 -6.56851 -0.398042 0.0668701 0.914927 140 134 127 255 
-0.409826 0.125213 -6.56908 -0.433889 0.0485969 0.899655 145 138 134 255 
-0.404349 0.122759 -6.56647 -0.410414 -0.127679 0.902917 153 148 138 255 
-0.399808 0.119182 -6.5643 -0.479045 -0.23933 0.844533 153 147 138 255 
-0.397071 0.119087 -6.5637 -0.128917 -0.2516 0.959207 146 141 135 255 
-0.393092 0.118426 -6.56227 -0.111431 0.106612 0.988037 125 120 118 255 
-0.388609 0.115994 -6.55981 -0.335856 -0.050505 0.940558 139 132 131 255 
-0.385635 0.115879 -6.55858 -0.425539 -0.135234 0.894778 122 116 113 255 
-0.381507 0.113533 -6.55712 -0.524071 0.00208706 0.851672 144 138 134 255 
-0.378809 0.11159 -6.55525 -0.632591 -0.0763143 0.770717 133 128 124 255 
-0.370882 0.109028 -6.55156 -0.458279 -0.184423 0.869465 140 136 134 255 
-0.370074 0.109014 -6.55144 -0.691156 -0.461953 0.55579 162 158 156 255 
-0.368221 0.108814 -6.55024 -0.391684 0.300702 0.869576 147 144 143 255 
-0.367475 0.108756 -6.55075 -0.454645 -0.312023 0.83423 152 148 146 255 
-0.368291 0.109701 -6.55067 -0.643131 -0.507846 0.573127 155 150 149 255 
-0.365371 0.106095 -6.54653 -0.246026 0.359055 0.900306 141 138 136 255 
-0.364974 0.108896 -6.55006 -0.594814 -0.463579 0.656727 127 123 121 255 
-0.358297 0.0970059 -6.53435 -0.563756 -0.544936 0.620664 147 145 141 255 
-0.357075 0.0996387 -6.53682 -0.39932 0.189565 0.897 145 142 140 255 
-0.352018 0.0964615 -6.53297 0.259792 -0.458226 0.850022 142 142 143 255 
-0.350507 0.0985865 -6.53499 -0.373376 0.31107 0.873971 134 135 140 255 
-0.348317 0.0963527 -6.53303 0.26266 -0.49972 0.825403 147 149 148 255 
-0.344701 0.0939497 -6.53208 -0.500451 -0.413035 0.760888 109 112 97 255 
-0.342349 0.094013 -6.53099 -0.417321 0.228946 0.879447 110 114 97 255 
-0.339586 0.0931485 -6.52838 -0.454612 -0.334214 0.825608 123 126 113 255 
-0.337922 0.0908314 -6.5281 -0.304328 -0.322267 0.896397 66 67 58 255 
-0.335813 0.0912511 -6.52803 -0.304672 -0.434577 0.847537 54 55 46 255 
-0.333937 0.0922095 -6.5288 -0.547614 -0.0273584 0.836284 65 65 57 255 
-0.33051 0.0893524 -6.52641 0.307524 -0.531889 0.789001 59 58 56 255 
-0.328509 0.0906367 -6.5262 0.249808 -0.530699 0.80991 50 49 45 255 
-0.325506 0.0881063 -6.52413 0.294809 -0.499016 0.814905 61 61 60 255 
-0.323748 0.0896212 -6.52439 -0.544934 -0.7221 0.426167 60 59 59 255 
-0.321275 0.0879528 -6.52405 -0.100389 -0.875097 0.473421 80 78 76 255 
-0.317058 0.0872441 -6.52316 -0.423719 -0.735756 0.528323 74 71 70 255 
-0.312404 0.0857796 -6.52263 -0.142565 -0.489613 0.860206 117 116 113 255 
-0.312143 0.0868629 -6.52172 -0.0914856 -0.605012 0.790943 93 91 89 255 
-0.309929 0.0854509 -6.52191 0.50868 -0.776593 0.371684 102 99 94 255 
-0.307451 0.0856063 -6.52322 0.0650306 -0.685762 0.724915 80 77 72 255 
-0.481481 0.15145 -6.6066 -0.247471 0.294435 0.923074 182 200 202 255 
-0.474204 0.147544 -6.60086 0.231463 -0.625678 0.744951 214 217 208 255 
-0.464336 0.133827 -6.58123 0.14923 -0.947141 0.283998 173 181 169 255 
-0.464336 0.133827 -6.58123 0.14923 -0.947141 0.283998 160 167 157 255 
-0.464434 0.133996 -6.5815 0.158297 -0.925067 0.345245 155 161 151 255 
-0.453383 0.129634 -6.57946 -0.137993 -0.360847 0.92236 68 66 55 255 
-0.449515 0.129459 -6.57861 0.0169925 -0.835061 0.549895 73 70 64 255 
-0.447213 0.131105 -6.57954 -0.189757 -0.945319 0.265261 63 59 56 255 
-0.44707 0.130032 -6.57718 -0.330376 -0.53268 0.779169 56 53 48 255 
-0.444859 0.128651 -6.57765 -0.27642 -0.466719 0.840098 84 80 76 255 
-0.442218 0.128537 -6.57663 -0.114098 -0.468494 0.876068 88 85 79 255 
-0.439298 0.130272 -6.5782 -0.594606 -0.683152 0.423966 106 102 95 255 
-0.434392 0.13118 -6.58174 -0.337692 -0.31306 0.88767 98 93 89 255 
-0.421704 0.125677 -6.5757 -0.5405 -0.150072 0.827852 135 129 123 255 
-0.421803 0.127336 -6.57554 -0.654461 -0.420986 0.628054 150 144 140 255 
-0.418462 0.124439 -6.57266 -0.353522 -0.318775 0.879435 137 131 126 255 
-0.413874 0.121883 -6.57025 -0.495209 0.0171149 0.868605 125 118 114 255 
-0.415886 0.124595 -6.57184 -0.487566 -0.00495809 0.873072 126 119 115 255 
-0.411277 0.122668 -6.56988 -0.28574 -0.0739998 0.955446 132 126 122 255 
-0.402811 0.120033 -6.56608 -0.383755 -0.0771184 0.920209 137 131 123 255 
-0.401316 0.117257 -6.56564 -0.429265 -0.0482541 0.901889 129 122 115 255 
-0.398288 0.116737 -6.56431 -0.15939 -0.21035 0.964545 139 133 127 255 
-0.39484 0.115872 -6.56251 -0.0866213 0.0866298 0.992468 125 120 116 255 
-0.391515 0.115855 -6.56087 -0.396744 -0.0321628 0.917366 141 135 134 255 
-0.38672 0.112974 -6.5591 -0.544701 -0.103424 0.832229 148 143 138 255 
-0.384003 0.113065 -6.55794 -0.497598 -0.14826 0.854643 139 134 129 255 
-0.382271 0.110042 -6.55697 -0.550411 -0.0755359 0.83147 145 140 135 255 
-0.378225 0.108297 -6.55454 -0.659194 -0.315797 0.682448 147 142 140 255 
-0.373344 0.10891 -6.55279 -0.51799 0.0679061 0.852687 140 135 132 255 
-0.367652 0.102197 -6.5465 0.05246 0.445015 0.893986 160 158 153 255 
-0.363453 0.0971992 -6.536 -0.623128 -0.521721 0.582681 161 158 154 255 
-0.361944 0.0951116 -6.53621 -0.256081 -0.572589 0.778822 149 150 143 255 
-0.361899 0.0982093 -6.53723 -0.313462 -0.377351 0.871406 153 151 146 255 
-0.359729 0.095231 -6.53582 -0.198079 -0.257012 0.945891 145 146 140 255 
-0.354984 0.0952678 -6.53424 -0.180882 -0.158786 0.970602 147 147 142 255 
-0.350156 0.09201 -6.53038 -0.258199 0.0408192 0.965229 119 120 106 255 
-0.350614 0.0925911 -6.53288 -0.391754 -0.355203 0.84874 94 96 81 255 
-0.352364 0.0950133 -6.53329 -0.376729 -0.373782 0.847562 149 150 144 255 
-0.348924 0.0935674 -6.53317 -0.169506 -0.246803 0.954126 97 98 84 255 
-0.346532 0.093731 -6.53301 -0.506774 -0.165696 0.846005 98 100 84 255 
-0.342752 0.0912395 -6.53113 -0.429915 -0.34964 0.832421 57 57 51 255 
-0.340538 0.0913979 -6.53021 -0.412056 -0.373444 0.831113 57 57 51 255 
-0.336605 0.088937 -6.5286 -0.616596 -0.570437 0.542597 66 66 64 255 
-0.32833 0.0883187 -6.52695 0.282691 -0.479796 0.830591 64 63 63 255 
-0.325617 0.0874766 -6.52571 -0.0199836 -0.698882 0.714957 70 69 69 255 
-0.32331 0.0874459 -6.52539 -0.185715 -0.557477 0.809154 81 80 81 255 
-0.318919 0.0866807 -6.52433 -0.491486 -0.572044 0.656663 82 79 77 255 
-0.311267 0.084111 -6.52365 -0.0581913 -0.430857 0.900542 124 122 116 255 
-0.308237 0.0831807 -6.52364 -0.349613 -0.321083 0.880157 85 81 75 255 
-0.482745 0.142876 -6.59972 -0.424949 -0.0243299 0.90489 152 165 163 255 
-0.482644 0.14294 -6.59984 -0.286297 -0.539718 0.791668 154 167 166 255 
-0.48135 0.142389 -6.59825 -0.422636 0.147677 0.894187 150 163 162 255 
-0.47719 0.144571 -6.60091 -0.429881 0.145898 0.89102 146 147 143 255 
-0.4764 0.14505 -6.60089 -0.471626 0.170067 0.865243 147 147 143 255 
-0.469006 0.132204 -6.5846 -0.602171 -0.656506 0.454302 166 168 162 255 
-0.468336 0.13329 -6.58801 -0.60264 -0.657804 0.451795 148 154 149 255 
-0.465159 0.130514 -6.58241 -0.304311 -0.417874 0.856023 131 132 126 255 
-0.461969 0.130095 -6.5817 0.303331 -0.0361953 0.952198 122 121 114 255 
-0.459468 0.13048 -6.58041 -0.290483 -0.581294 0.760077 124 123 114 255 
-0.458115 0.128096 -6.58089 0.0639917 -0.307423 0.949419 98 96 83 255 
-0.456114 0.128642 -6.57784 -0.47167 -0.104559 0.875554 122 120 107 255 
-0.451078 0.128227 -6.57984 -0.19926 -0.631288 0.749514 69 65 60 255 
-0.447673 0.130159 -6.5819 -0.382856 -0.881837 0.27529 96 92 89 255 
-0.446483 0.12865 -6.58218 -0.611633 -0.744352 0.26804 93 89 88 255 
-0.443439 0.127285 -6.57934 -0.215557 -0.781857 0.585008 92 89 84 255 
-0.441815 0.1279 -6.57981 -0.25806 -0.88575 0.385814 98 95 90 255 
-0.438796 0.126224 -6.57864 -0.50294 -0.599095 0.623006 100 96 91 255 
-0.437639 0.128068 -6.57913 -0.482713 -0.690504 0.538695 91 87 82 255 
-0.437673 0.126534 -6.57999 -0.263422 -0.56683 0.780585 100 96 92 255 
-0.434693 0.127534 -6.58021 -0.229652 -0.168675 0.958545 107 103 98 255 
-0.431621 0.127296 -6.57905 -0.616444 -0.347609 0.706516 124 118 111 255 
-0.42699 0.123815 -6.57711 -0.680332 -0.375418 0.629452 130 124 120 255 
-0.424579 0.122983 -6.57575 -0.574147 -0.11619 0.810466 143 137 131 255 
-0.421205 0.122659 -6.57462 -0.30254 0.0325636 0.95258 135 129 123 255 
-0.418527 0.121329 -6.57359 -0.524249 -0.0179797 0.851375 155 149 143 255 
-0.415742 0.11989 -6.572 -0.56794 -0.0542461 0.821281 136 130 125 255 
-0.412393 0.119264 -6.57005 -0.303578 0.0261312 0.952448 127 121 116 255 
-0.409496 0.119419 -6.56871 -0.401452 -0.184855 0.897031 147 141 135 255 
-0.404286 0.117233 -6.56702 -0.519107 -0.0490244 0.853302 122 115 108 255 
-0.396612 0.113911 -6.56373 -0.107815 -0.0606225 0.992321 135 128 124 255 
-0.389127 0.111516 -6.56091 0.258289 -0.433365 0.863412 163 159 151 255 
-0.386874 0.110892 -6.55982 -0.755693 -0.129447 0.642006 181 179 178 255 
-0.371519 0.103227 -6.55014 0.229525 -0.0747211 0.97043 145 143 141 255 
-0.371836 0.103743 -6.55096 0.309346 -0.214311 0.926486 146 144 141 255 
-0.362449 0.0925452 -6.53618 -0.390509 -0.220045 0.893914 108 110 95 255 
-0.364971 0.0958101 -6.54055 -0.0255437 0.0676025 0.997385 136 137 125 255 
-0.359724 0.0922004 -6.53482 -0.253943 -0.325872 0.91067 97 99 85 255 
-0.360405 0.094476 -6.53718 -0.0903263 -0.165089 0.982134 132 134 122 255 
-0.357744 0.0926109 -6.53498 -0.250932 -0.356902 0.899808 102 104 90 255 
-0.355453 0.092676 -6.53396 -0.414109 -0.334511 0.846531 102 103 90 255 
-0.355496 0.0923062 -6.53518 -0.596612 -0.456691 0.659915 71 72 59 255 
-0.353503 0.0931345 -6.53441 -0.175351 -0.347628 0.92109 91 93 78 255 
-0.35144 0.0916012 -6.5345 -0.423679 -0.667938 0.611845 58 58 50 255 
-0.349795 0.0909429 -6.53301 -0.172874 -0.38124 0.908169 59 58 51 255 
-0.347263 0.0908661 -6.53243 -0.17239 -0.210025 0.962378 47 47 40 255 
-0.344854 0.0909951 -6.53221 -0.513528 -0.386376 0.766161 61 59 55 255 
-0.343768 0.0897454 -6.5338 -0.547212 -0.756549 0.358041 68 66 66 255 
-0.341349 0.0893224 -6.53156 -0.593487 -0.611503 0.523295 69 67 65 255 
-0.339217 0.0896726 -6.53096 -0.597835 -0.624284 0.502855 70 69 67 255 
-0.331733 0.0873573 -6.52912 0.304357 -0.0648054 0.950351 88 87 88 255 
-0.332608 0.0881564 -6.52938 -0.630543 -0.0769978 0.772326 83 82 82 255 
-0.33036 0.0864539 -6.52822 -0.494675 -0.534778 0.685061 82 81 81 255 
-0.327281 0.0859229 -6.52734 -0.23903 -0.438744 0.866238 84 84 82 255 
-0.324249 0.0853663 -6.52596 -0.101332 -0.489101 0.866321 104 103 102 255 
-0.319989 0.0842848 -6.52599 -0.693327 -0.544339 0.472221 118 116 109 255 
-0.322115 0.0859385 -6.52662 -0.190226 -0.309851 0.931561 109 108 105 255 
-0.316652 0.0844021 -6.52516 -0.733762 -0.553673 0.39375 112 111 110 255 
-0.315326 0.0819986 -6.52506 -0.01317 -0.177877 0.983965 109 109 112 255 
-0.314113 0.0842139 -6.52482 -0.509222 -0.648116 0.56625 120 120 117 255 
-0.312485 0.08218 -6.52429 0.0254256 -0.30256 0.952791 121 120 118 255 
-0.310342 0.0828247 -6.52402 -0.435751 -0.149918 0.887494 111 108 101 255 
-0.504747 0.145248 -6.60703 0.047693 -0.998737 -0.0158038 210 248 255 255 
-0.505191 0.149941 -6.61346 0.0233547 -0.999706 -0.00658453 211 248 255 255 
-0.501987 0.147582 -6.61114 -0.0942098 -0.99328 0.0672339 206 245 254 255 
-0.500085 0.150384 -6.61364 -0.100916 -0.992242 0.0726131 204 243 254 255 
-0.500085 0.150384 -6.61364 -0.100916 -0.992242 0.0726131 204 243 254 255 
-0.487485 0.144398 -6.60371 -0.356821 0.087716 0.930046 156 177 180 255 
-0.484873 0.141687 -6.60064 -0.493537 -0.642051 0.586679 133 146 146 255 
-0.481944 0.139377 -6.59985 -0.458853 -0.714058 0.528748 140 145 152 255 
-0.474682 0.139431 -6.59771 -0.427265 0.152348 0.891199 145 146 144 255 
-0.468305 0.12846 -6.58215 -0.592032 -0.675154 0.440074 148 150 144 255 
-0.465816 0.126463 -6.58121 -0.543182 -0.27882 0.791967 131 131 128 255 
-0.463596 0.128483 -6.58323 -0.304168 -0.3387 0.890373 127 126 120 255 
-0.460303 0.126998 -6.58108 0.0304139 -0.260997 0.96486 113 112 98 255 
-0.45548 0.12656 -6.58179 -0.47284 -0.673016 0.568746 78 74 68 255 
-0.453082 0.126791 -6.57999 -0.197966 -0.634721 0.746953 67 63 57 255 
-0.451123 0.1263 -6.58176 -0.151356 -0.755041 0.637969 84 79 76 255 
-0.442952 0.124959 -6.5805 -0.567182 -0.665615 0.485038 115 111 105 255 
-0.441252 0.126279 -6.5806 -0.455581 -0.728456 0.511662 98 94 88 255 
-0.438339 0.123753 -6.58025 -0.248038 -0.406052 0.879544 104 99 93 255 
-0.436426 0.124907 -6.58143 -0.365731 -0.0301913 0.930231 123 118 112 255 
-0.433184 0.124766 -6.57995 -0.0963885 -0.164205 0.981706 122 116 111 255 
-0.430029 0.124192 -6.57872 -0.323781 -0.200997 0.924536 126 120 114 255 
-0.426038 0.120978 -6.57692 -0.626323 -0.233449 0.743789 130 125 120 255 
-0.426275 0.120301 -6.57653 -0.306297 -0.00772549 0.951905 128 123 119 255 
-0.423019 0.120225 -6.57542 -0.124719 -0.172777 0.977033 136 130 126 255 
-0.41438 0.11766 -6.57241 -0.671064 -0.168696 0.721952 154 150 147 255 
-0.410695 0.116034 -6.56896 -0.469936 -0.0900627 0.878094 129 122 118 255 
-0.406247 0.113909 -6.56839 -0.697678 -0.136233 0.70334 140 136 138 255 
-0.407521 0.115836 -6.56757 -0.501766 0.0749061 0.861754 142 135 129 255 
-0.40769 0.114821 -6.56903 -0.47094 0.163566 0.866869 135 128 124 255 
-0.403326 0.113608 -6.56727 -0.688306 -0.498351 0.527144 130 125 126 255 
-0.402811 0.112053 -6.56594 0.183693 -0.0590362 0.981209 119 112 110 255 
-0.396583 0.100138 -6.54574 -0.651163 -0.646393 0.397696 137 130 125 255 
-0.398996 0.113219 -6.56513 -0.483674 0.037008 0.874466 129 121 117 255 
-0.397296 0.111698 -6.56288 -0.330287 -0.0408719 0.942995 130 123 119 255 
-0.385687 0.0948 -6.54094 -0.0688908 -0.967943 0.241539 159 156 149 255 
-0.387044 0.106816 -6.5577 0.532818 0.324323 0.781613 152 148 141 255 
-0.384018 0.107123 -6.55712 -0.467093 0.180401 0.865609 156 154 148 255 
-0.381761 0.101827 -6.5515 -0.172882 0.39753 0.901156 166 165 161 255 
-0.380543 0.101371 -6.54887 -0.190879 0.258104 0.947073 164 162 158 255 
-0.37432 0.0954879 -6.54375 0.285157 -0.393091 0.874166 129 130 117 255 
-0.369494 0.0958528 -6.54117 0.233225 -0.285296 0.92963 146 146 137 255 
-0.369484 0.0958261 -6.54117 0.252039 -0.315113 0.914975 146 146 137 255 
-0.368518 0.0940079 -6.54014 -0.0410276 0.429074 0.902337 116 117 103 255 
-0.369542 0.097311 -6.54306 0.0292055 0.266049 0.963517 149 149 141 255 
-0.366524 0.0949491 -6.5403 0.261206 -0.340751 0.903139 123 125 112 255 
-0.361638 0.0911083 -6.53772 -0.277206 -0.318526 0.906476 58 58 50 255 
-0.358145 0.0899621 -6.53476 -0.331044 -0.346657 0.877633 52 52 44 255 
-0.358168 0.0900345 -6.53488 -0.264066 -0.393278 0.880682 52 52 44 255 
-0.356166 0.0904214 -6.53499 -0.478348 -0.544349 0.689106 57 57 50 255 
-0.353477 0.0911264 -6.53579 -0.294941 -0.655309 0.6954 44 44 39 255 
-0.351438 0.0897898 -6.53616 -0.360418 -0.868761 0.339636 62 60 60 255 
-0.348966 0.0896226 -6.53467 -0.444729 -0.778252 0.443327 61 59 57 255 
-0.346331 0.0893819 -6.5338 -0.637466 -0.580383 0.506747 66 64 64 255 
-0.341105 0.0871417 -6.53339 -0.622497 -0.646922 0.440441 102 101 96 255 
-0.336675 0.0870763 -6.531 -0.463031 -0.455023 0.760629 83 82 80 255 
-0.334743 0.0858316 -6.53194 -0.69572 -0.30305 0.651256 92 91 88 255 
-0.332393 0.08508 -6.52997 -0.329107 -0.403587 0.853702 111 112 111 255 
-0.32991 0.0849379 -6.5291 -0.441185 -0.184784 0.878186 93 93 92 255 
-0.323344 0.0836859 -6.52744 0.22661 -0.32367 0.918632 106 106 105 255 
-0.321973 0.0815187 -6.52752 -0.159524 -0.381387 0.910547 121 121 122 255 
-0.317936 0.0824416 -6.52582 -0.526264 -0.608944 0.593493 101 100 101 255 
-0.319749 0.082016 -6.52725 -0.409594 -0.140348 0.901407 104 104 105 255 
-0.316654 0.0802022 -6.526 -0.51761 -0.241181 0.820921 133 134 141 255 
-0.314059 0.0798926 -6.52524 -0.18989 -0.0862981 0.978005 142 143 146 255 
-0.311291 0.0799632 -6.52411 -0.421985 0.0164891 0.906453 138 136 133 255 
-0.30887 0.08062 -6.52381 -0.373456 -0.340787 0.862783 107 103 99 255 
-0.51255 0.147536 -6.61198 -0.37583 -0.889747 0.259041 206 241 251 255 
-0.509279 0.145457 -6.61158 -0.163073 -0.84719 0.505645 186 225 241 255 
-0.502617 0.142211 -6.60695 0.0545955 -0.998506 -0.00226423 207 244 250 255 
-0.502527 0.143335 -6.60874 -0.275078 -0.840098 0.467512 184 216 225 255 
-0.500266 0.144638 -6.60775 0.0257251 -0.999637 -0.00802431 210 248 253 255 
-0.496561 0.144746 -6.60959 0.00674981 -0.993808 0.110903 206 235 237 255 
-0.498116 0.147158 -6.61364 -0.0848892 -0.995275 0.0471257 208 236 238 255 
-0.498163 0.147226 -6.61375 -0.0879699 -0.994724 0.0527777 208 236 238 255 
-0.491205 0.143657 -6.60896 -0.620326 -0.263456 0.738774 128 145 148 255 
-0.486994 0.143046 -6.60642 -0.375079 0.0323023 0.92643 125 134 139 255 
-0.480835 0.13355 -6.59557 -0.711359 -0.256031 0.654535 164 174 189 255 
-0.477895 0.129141 -6.58936 -0.703217 -0.385282 0.597532 168 179 190 255 
-0.472491 0.126279 -6.58275 -0.587137 -0.676302 0.444844 160 165 166 255 
-0.467786 0.125439 -6.58067 -0.492908 -0.572292 0.655381 124 125 119 255 
-0.465638 0.125185 -6.58303 -0.554339 -0.661848 0.504645 149 149 140 255 
-0.461829 0.12515 -6.58225 -0.302492 -0.295158 0.906301 103 102 88 255 
-0.460069 0.124907 -6.58296 -0.429073 -0.810115 0.399513 80 77 66 255 
-0.457651 0.12541 -6.58189 -0.297536 -0.837685 0.457991 57 53 45 255 
-0.455165 0.124241 -6.58333 -0.561995 -0.715404 0.415161 93 88 85 255 
-0.453196 0.125046 -6.58217 -0.520972 -0.724608 0.451144 89 84 80 255 
-0.447321 0.124536 -6.58536 -0.562298 -0.738424 0.372225 113 110 106 255 
-0.441207 0.124051 -6.5815 -0.0317454 -0.604564 0.795923 105 101 95 255 
-0.439738 0.122157 -6.58247 -0.177248 -0.493805 0.851317 117 112 106 255 
-0.436914 0.121833 -6.58119 -0.441764 -0.388906 0.808454 120 114 108 255 
-0.434477 0.122215 -6.58038 -0.657905 -0.456203 0.599199 164 157 150 255 
-0.431339 0.121693 -6.57911 -0.305813 -0.215701 0.927336 130 124 118 255 
-0.429536 0.120745 -6.5782 -0.308118 -0.0750383 0.948384 125 119 115 255 
-0.424587 0.117352 -6.57584 -0.298634 -0.20998 0.930981 137 132 129 255 
-0.421373 0.117084 -6.57446 -0.295757 0.0104799 0.955206 141 136 132 255 
-0.418106 0.117385 -6.57328 -0.435421 0.0717847 0.89736 160 154 148 255 
-0.416692 0.114689 -6.57307 -0.456393 -0.00928459 0.88973 160 155 146 255 
-0.412225 0.113756 -6.57063 -0.418195 -0.080405 0.904792 149 142 137 255 
-0.409218 0.113536 -6.56894 -0.341213 0.00218201 0.939984 130 123 120 255 
-0.401714 0.101408 -6.55275 -0.622006 -0.509985 0.594159 150 143 140 255 
-0.40447 0.110651 -6.56732 -0.297968 -0.10648 0.948619 131 126 123 255 
-0.398806 0.100966 -6.55034 -0.629899 -0.522746 0.574424 144 138 137 255 
-0.396186 0.0969405 -6.54641 -0.600741 -0.565426 0.565158 158 153 150 255 
-0.390957 0.0941676 -6.54011 0.0247493 -0.986048 0.164612 172 166 161 255 
-0.388713 0.0946015 -6.54327 0.0604117 -0.970503 0.233397 151 149 142 255 
-0.379605 0.0943928 -6.54297 -0.449973 0.0872425 0.88877 140 141 129 255 
-0.38139 0.0974978 -6.54652 -0.43939 0.211018 0.87316 157 156 148 255 
-0.378154 0.0970026 -6.546 -0.425292 -0.356441 0.831912 145 146 136 255 
-0.379504 0.0957006 -6.54409 -0.403321 0.0310708 0.914531 150 151 141 255 
-0.375684 0.0933962 -6.54395 -0.485912 -0.333698 0.807796 71 72 61 255 
-0.375629 0.0967312 -6.54573 0.0718239 0.294995 0.952795 139 139 127 255 
-0.37343 0.0935604 -6.54499 0.284201 -0.391172 0.875337 56 56 48 255 
-0.371055 0.0940837 -6.542 0.262551 -0.334181 0.905202 92 94 80 255 
-0.368077 0.093224 -6.5411 0.234514 -0.288578 0.928292 72 74 61 255 
-0.365438 0.0928798 -6.54111 0.226831 -0.278736 0.933195 49 49 39 255 
-0.363286 0.0913461 -6.53988 -0.17321 -0.923137 0.343243 55 55 50 255 
-0.360207 0.0890111 -6.53793 -0.250783 -0.814696 0.522855 59 59 58 255 
-0.358617 0.0874548 -6.535 -0.528534 -0.662068 0.531336 59 58 57 255 
-0.3492 0.0887093 -6.53805 -0.418327 -0.819391 0.39192 82 80 78 255 
-0.349227 0.0894898 -6.53926 -0.449863 -0.859443 0.242859 94 93 92 255 
-0.346228 0.0871477 -6.53581 -0.68139 -0.614831 0.397103 94 94 91 255 
-0.338199 0.0853991 -6.53531 -0.661405 -0.64376 0.384859 104 104 101 255 
-0.337145 0.0849161 -6.53223 -0.604522 -0.593118 0.531756 91 90 85 255 
-0.333229 0.0831214 -6.53106 -0.313066 -0.398372 0.862142 91 92 92 255 
-0.330896 0.0830316 -6.53021 -0.279813 -0.302376 0.911194 109 110 111 255 
-0.328507 0.0824593 -6.52861 -0.800212 -0.495868 0.337306 104 104 108 255 
-0.324351 0.0817637 -6.52833 0.001075 -0.256511 0.966541 116 117 118 255 
-0.322829 0.0790795 -6.52755 0.0434633 0.11407 0.992522 150 151 153 255 
-0.320673 0.07935 -6.52742 -0.335112 0.00471234 0.942167 145 145 147 255 
-0.316023 0.0775238 -6.52574 -0.237892 0.286844 0.92797 164 166 169 255 
-0.312656 0.0771196 -6.52415 -0.262551 0.246425 0.932921 167 168 164 255 
-0.310393 0.0781797 -6.52455 -0.466632 0.105123 0.878182 151 147 140 255 
-0.518602 0.1258 -6.58388 -0.399819 -0.866032 0.300223 207 241 251 255 
-0.518664 0.125922 -6.5841 -0.402525 -0.863566 0.303691 207 241 251 255 
-0.519461 0.129712 -6.58938 -0.485834 -0.808494 0.332119 210 243 249 255 
-0.519983 0.130783 -6.59068 -0.475428 -0.792804 0.381353 206 241 251 255 
-0.520139 0.131168 -6.59153 -0.412776 -0.854963 0.314093 206 241 251 255 
-0.520153 0.131222 -6.59163 -0.413662 -0.854915 0.313056 206 241 251 255 
-0.523267 0.146024 -6.61536 -0.101251 -0.991085 0.0865915 204 242 254 255 
-0.519782 0.145383 -6.61439 -0.192614 -0.972728 0.129226 207 241 250 255 
-0.514682 0.144637 -6.61439 -0.290995 -0.887506 0.357288 190 227 238 255 
-0.512068 0.145166 -6.61345 -0.158879 -0.817619 0.553405 191 229 243 255 
-0.498914 0.142304 -6.60875 0.131163 -0.987324 0.0893685 177 201 204 255 
-0.500749 0.143783 -6.6117 -0.304148 -0.895047 0.326167 170 192 194 255 
-0.489561 0.140442 -6.60867 -0.503002 -0.612432 0.60985 115 119 125 255 
-0.487079 0.138684 -6.60566 -0.648223 -0.399656 0.648138 143 152 164 255 
-0.484402 0.138312 -6.60364 -0.182701 0.366486 0.912309 146 152 160 255 
-0.485879 0.139245 -6.60516 -0.570484 0.054304 0.819511 160 174 190 255 
-0.473553 0.121813 -6.5822 -0.573165 -0.685257 0.449338 140 142 135 255 
-0.472405 0.122551 -6.58338 -0.568255 -0.709266 0.417166 137 137 133 255 
-0.475009 0.126133 -6.58555 -0.558063 -0.631459 0.538354 154 159 153 255 
-0.471418 0.124639 -6.58399 -0.589863 -0.671048 0.449173 138 138 136 255 
-0.465679 0.123213 -6.58412 -0.507359 -0.729114 0.459326 109 110 90 255 
-0.463077 0.123105 -6.58398 0.00964777 -0.496556 0.867951 70 69 57 255 
-0.457824 0.124334 -6.58531 -0.556779 -0.715871 0.421338 86 80 78 255 
-0.45151 0.122018 -6.58437 -0.56518 -0.664711 0.488601 107 103 97 255 
-0.444453 0.121405 -6.58404 -0.546006 -0.56001 0.62311 112 107 100 255 
-0.442499 0.122494 -6.58357 -0.558712 -0.510752 0.653432 105 100 93 255 
-0.440547 0.119723 -6.58309 -0.435902 0.0756176 0.896812 117 110 104 255 
-0.43767 0.119164 -6.58163 -0.260789 0.186168 0.947276 126 120 113 255 
-0.433638 0.117807 -6.58 -0.34188 0.251559 0.905448 150 143 136 255 
-0.430455 0.117696 -6.57838 -0.416704 -0.0219789 0.908777 129 123 117 255 
-0.42739 0.117497 -6.57694 -0.353325 -0.0711507 0.932791 137 132 128 255 
-0.426573 0.115973 -6.57819 -0.556693 0.138535 0.819085 176 175 173 255 
-0.42562 0.114279 -6.57583 -0.42092 0.00438559 0.907087 149 143 138 255 
-0.423037 0.114541 -6.57537 -0.197859 0.0177557 0.98007 144 138 133 255 
-0.419689 0.114263 -6.57403 -0.428265 0.0027445 0.903649 168 163 156 255 
-0.415037 0.111618 -6.572 -0.54427 0.0171652 0.838735 153 147 138 255 
-0.412374 0.110088 -6.57091 -0.500618 0.0451415 0.86449 165 160 152 255 
-0.410707 0.110523 -6.56922 -0.563817 -0.153401 0.811529 162 156 150 255 
-0.407614 0.110473 -6.56802 -0.29586 0.0821359 0.951694 145 139 134 255 
-0.400286 0.0992329 -6.55321 -0.450423 -0.288431 0.844942 157 153 147 255 
-0.404206 0.106947 -6.56505 -0.305607 0.299483 0.903833 141 137 133 255 
-0.397571 0.0990206 -6.55134 -0.479061 -0.269416 0.835414 161 156 153 255 
-0.39532 0.0958242 -6.5491 -0.428139 -0.43161 0.793984 157 156 148 255 
-0.39001 0.0948171 -6.54875 0.053217 -0.880735 0.47061 118 119 106 255 
-0.390789 0.0932115 -6.5427 0.0182824 -0.983597 0.179453 154 152 144 255 
-0.387899 0.0953039 -6.54864 -0.347535 -0.341402 0.873306 124 125 112 255 
-0.385445 0.0952965 -6.54765 -0.385763 -0.343712 0.856183 123 124 111 255 
-0.38351 0.0951442 -6.54676 0.145911 -0.983046 0.111047 130 133 117 255 
-0.37016 0.0922629 -6.54336 0.386234 -0.67643 0.627109 48 47 43 255 
-0.370909 0.0924003 -6.54467 -0.491916 -0.584661 0.645127 46 45 42 255 
-0.367305 0.09028 -6.54105 0.392173 -0.387735 0.834183 58 56 54 255 
-0.36294 0.0908565 -6.54224 -0.623313 -0.655703 0.426069 67 67 67 255 
-0.357673 0.0864965 -6.53952 -0.263932 -0.454659 0.850662 88 87 85 255 
-0.357404 0.0887693 -6.54167 -0.669315 -0.6808 0.297537 91 91 92 255 
-0.354371 0.0853047 -6.53448 -0.616345 -0.552771 0.560859 83 81 80 255 
-0.352503 0.0874523 -6.54086 -0.576922 -0.726169 0.373953 87 86 83 255 
-0.35301 0.0875661 -6.54145 -0.675063 -0.678018 0.290829 90 89 90 255 
-0.34805 0.0855642 -6.53918 -0.641977 -0.614628 0.458364 93 92 89 255 
-0.346211 0.0867828 -6.53795 -0.440635 -0.877307 0.190193 90 89 87 255 
-0.342159 0.084708 -6.53619 -0.735809 -0.529729 0.421867 96 97 96 255 
-0.340377 0.0858199 -6.53725 -0.613142 -0.616346 0.494141 93 93 90 255 
-0.337955 0.0820995 -6.53438 -0.506049 -0.447919 0.737077 96 96 97 255 
-0.334562 0.0806227 -6.53056 0.22482 0.145482 0.963479 84 84 86 255 
-0.336043 0.0823146 -6.53313 -0.548318 -0.358087 0.755726 85 86 86 255 
-0.331776 0.0810267 -6.53103 -0.29509 -0.330539 0.896474 114 115 119 255 
-0.330499 0.0801787 -6.52872 -0.761865 -0.36182 0.53726 136 139 146 255 
-0.326071 0.079757 -6.52854 -0.335565 -0.0144815 0.941906 121 121 124 255 
-0.321969 0.0770323 -6.52793 -0.555155 0.199374 0.807498 182 184 185 255 
-0.319235 0.0770618 -6.52582 -0.482644 0.241975 0.841726 160 162 164 255 
-0.313598 0.071576 -6.52037 0.567542 0.074703 0.819949 138 141 137 255 
-0.311318 0.0725533 -6.52257 0.648085 0.169011 0.742578 147 144 133 255 
-0.311756 0.0753165 -6.52456 -0.318323 0.268656 0.909117 161 160 150 255 
-0.308472 0.0751945 -6.52373 0.0401317 0.34627 0.937276 163 160 148 255 
-0.534774 0.147737 -6.62051 -0.366844 -0.814212 0.449982 193 234 253 255 
-0.535135 0.148042 -6.62103 -0.409312 -0.760558 0.503999 193 234 253 255 
-0.541705 0.161106 -6.64119 -0.523348 -0.731281 0.437418 205 243 254 255 
-0.522966 0.135728 -6.60245 -0.0797833 -0.993925 0.0758103 206 241 251 255 
-0.522805 0.133513 -6.60077 -0.260304 -0.945505 0.195608 206 241 250 255 
-0.52173 0.139067 -6.60588 -0.0916767 -0.992932 0.0753813 206 241 251 255 
-0.521353 0.138608 -6.60507 -0.0780539 -0.994642 0.0677845 206 241 251 255 
-0.522678 0.13745 -6.60525 -0.281058 -0.937434 0.205484 205 240 250 255 
-0.522495 0.136228 -6.60483 -0.38773 -0.859832 0.332196 206 240 249 255 
-0.522663 0.13642 -6.60517 -0.395128 -0.854396 0.337464 206 240 249 255 
-0.522425 0.136155 -6.60476 -0.392848 -0.85972 0.326422 206 240 249 255 
-0.522717 0.144996 -6.61874 0.0347006 -0.998945 0.0300842 206 244 250 255 
-0.522717 0.144996 -6.61874 0.0347006 -0.998945 0.0300842 206 244 250 255 
-0.517674 0.144679 -6.6167 -0.274424 -0.800266 0.533166 186 221 232 255 
-0.493271 0.14171 -6.61387 -0.580911 -0.67942 0.448254 123 126 131 255 
-0.493271 0.14171 -6.61387 -0.580911 -0.67942 0.448254 123 126 131 255 
-0.484619 0.130243 -6.59883 -0.608256 -0.357938 0.708452 150 153 150 255 
-0.488414 0.135832 -6.60782 -0.540464 0.0363246 0.840583 134 137 140 255 
-0.482504 0.131188 -6.5988 -0.641374 -0.285586 0.712096 167 173 168 255 
-0.477399 0.125262 -6.58882 -0.57204 0.040662 0.819217 150 156 150 255 
-0.469492 0.121779 -6.58354 -0.066682 -0.445288 0.892901 130 131 122 255 
-0.471339 0.122308 -6.58601 -0.120478 -0.403315 0.907095 126 126 116 255 
-0.468961 0.121042 -6.58656 0.219668 -0.689183 0.690487 85 84 70 255 
-0.466672 0.122082 -6.58564 -0.219188 -0.52507 0.822349 84 83 68 255 
-0.464602 0.121745 -6.58593 0.0356596 -0.49224 0.869729 59 57 48 255 
-0.461881 0.121354 -6.58536 -0.498878 -0.758785 0.418769 73 70 66 255 
-0.455203 0.1192 -6.58428 -0.58773 -0.539943 0.602524 99 95 89 255 
-0.456772 0.121414 -6.58611 -0.341151 -0.646726 0.682174 90 87 80 255 
-0.454814 0.120739 -6.58472 -0.469008 -0.599207 0.648832 92 89 83 255 
-0.454814 0.120739 -6.58472 -0.469008 -0.599207 0.648832 92 89 83 255 
-0.454814 0.120739 -6.58472 -0.469008 -0.599207 0.648832 92 89 83 255 
-0.453959 0.121438 -6.58591 -0.18584 -0.816536 0.546565 95 92 86 255 
-0.451675 0.120128 -6.58627 -0.114099 -0.542307 0.832397 97 92 87 255 
-0.446078 0.10788 -6.56802 -0.651744 -0.485758 0.582468 119 113 108 255 
-0.448686 0.119713 -6.58477 -0.272536 -0.266235 0.924577 104 100 94 255 
-0.44685 0.121211 -6.58618 -0.372231 -0.113407 0.921186 111 106 99 255 
-0.442272 0.119066 -6.58423 -0.439803 -0.144523 0.88639 118 111 104 255 
-0.44138 0.119586 -6.58395 -0.671773 -0.181149 0.718266 126 121 119 255 
-0.43607 0.109326 -6.57061 -0.503114 0.0999055 0.858426 141 135 128 255 
-0.436233 0.10962 -6.5711 -0.328114 0.126258 0.936162 139 133 124 255 
-0.432353 0.105492 -6.56541 -0.426881 0.0896834 0.89985 139 133 125 255 
-0.433048 0.108134 -6.56757 -0.464766 0.104204 0.879281 140 133 126 255 
-0.43234 0.109863 -6.56876 -0.432116 0.211011 0.876784 137 131 125 255 
-0.430276 0.10678 -6.56701 -0.484733 0.0476359 0.873364 134 127 123 255 
-0.432301 0.109024 -6.56794 -0.32702 0.132394 0.935697 138 131 125 255 
-0.431801 0.11406 -6.57818 0.0270727 0.136149 0.990318 129 123 118 255 
-0.428449 0.114007 -6.57819 0.0899622 -0.14837 0.984832 145 139 134 255 
-0.424613 0.111848 -6.57571 -0.150906 0.169001 0.973995 152 147 140 255 
-0.418163 0.11138 -6.5735 -0.359224 -0.198067 0.911991 167 162 153 255 
-0.412791 0.105001 -6.56697 -0.485496 -0.240786 0.840426 164 161 153 255 
-0.413266 0.105652 -6.56812 -0.479687 -0.221043 0.849141 163 160 153 255 
-0.408685 0.102983 -6.56253 -0.638935 -0.48247 0.599154 175 173 166 255 
-0.408978 0.106967 -6.56732 -0.287114 0.291965 0.912317 167 164 157 255 
-0.407624 0.101518 -6.55994 -0.3175 -0.229738 0.920008 163 160 153 255 
-0.404209 0.100194 -6.55912 -0.335665 0.273089 0.901527 160 158 149 255 
-0.400457 0.0991862 -6.55659 -0.499496 0.0135511 0.86621 155 154 145 255 
-0.397741 0.0958634 -6.55049 -0.356384 -0.364463 0.860324 151 150 140 255 
-0.395717 0.0927754 -6.54836 -0.395578 -0.0832293 0.914654 101 101 88 255 
-0.393631 0.0931916 -6.5485 -0.268583 -0.337131 0.902333 101 101 88 255 
-0.39228 0.0938747 -6.54891 -0.309871 -0.265266 0.913025 110 111 98 255 
-0.388321 0.0918518 -6.54776 -0.41241 -0.219879 0.884065 51 52 42 255 
-0.386508 0.0931259 -6.54873 -0.251965 0.257997 0.932712 59 60 50 255 
-0.378473 0.0925274 -6.54789 -0.600008 -0.711416 0.365891 58 57 57 255 
-0.37981 0.0918483 -6.54804 -0.354257 -0.898842 0.258043 64 63 63 255 
-0.376095 0.0909969 -6.5479 -0.526769 -0.794863 0.301177 68 67 68 255 
-0.374139 0.0910668 -6.54729 -0.584918 -0.731899 0.349563 63 62 62 255 
-0.370452 0.0905776 -6.5476 -0.549411 -0.778812 0.302655 75 75 73 255 
-0.366588 0.0882044 -6.54304 -0.657502 -0.550247 0.514703 80 77 76 255 
-0.362819 0.0889612 -6.54386 -0.389568 -0.722764 0.570832 88 87 84 255 
-0.356035 0.0852323 -6.54044 -0.482613 -0.530168 0.697142 88 86 84 255 
-0.353653 0.0851807 -6.53827 -0.388606 -0.679791 0.621989 86 84 82 255 
-0.353776 0.0860521 -6.5396 -0.681812 -0.471726 0.559112 99 97 94 255 
-0.354714 0.0869815 -6.54251 -0.715842 -0.636687 0.286705 103 104 106 255 
-0.348967 0.0833508 -6.5396 -0.536516 -0.150436 0.830373 85 83 81 255 
-0.348742 0.0822021 -6.53566 -0.627547 -0.387502 0.675298 78 76 74 255 
-0.347452 0.0837365 -6.54029 -0.502798 -0.167078 0.848103 87 85 82 255 
-0.345083 0.0831856 -6.53828 -0.568558 -0.359847 0.739765 85 83 83 255 
-0.342863 0.0831102 -6.53687 -0.72714 -0.524593 0.442797 90 91 94 255 
-0.339545 0.0807922 -6.53641 -0.422912 -0.161822 0.891605 118 115 115 255 
-0.340656 0.0825481 -6.53598 -0.30582 -0.445501 0.841429 89 88 88 255 
-0.337613 0.0805565 -6.53603 -0.563892 -0.147847 0.812506 126 123 123 255 
-0.33482 0.0790642 -6.53282 -0.290586 -0.188606 0.938077 118 117 119 255 
-0.332679 0.079208 -6.53215 -0.366957 -0.291417 0.883413 120 121 124 255 
-0.32747 0.0778043 -6.52966 -0.547176 0.169974 0.819577 156 156 157 255 
-0.325382 0.0741832 -6.52689 0.00413175 0.395253 0.918563 153 154 154 255 
-0.325205 0.0742344 -6.52688 -0.738043 -0.43658 0.514481 169 171 172 255 
-0.325973 0.074705 -6.52796 0.0464505 0.356024 0.933322 153 154 154 255 
-0.318248 0.0753981 -6.52669 -0.145079 0.223849 0.963766 157 159 157 255 
-0.31614 0.0722515 -6.52269 -0.783964 -0.549845 0.28822 155 162 165 255 
-0.31267 0.070263 -6.52243 0.2598 -0.349786 0.900086 135 136 133 255 
-0.310155 0.0704989 -6.52221 -0.493861 -0.0619428 0.867332 143 140 131 255 
-0.538785 0.146888 -6.62088 -0.52595 -0.733294 0.430879 206 245 254 255 
-0.53542 0.145632 -6.62304 -0.232912 -0.915995 0.326658 198 235 246 255 
-0.534454 0.145907 -6.62306 -0.184995 -0.907636 0.376793 198 235 245 255 
-0.530266 0.144567 -6.61866 0.0028303 -0.98289 0.18417 191 227 239 255 
-0.52483 0.136308 -6.6054 -0.359895 -0.89313 0.269804 208 240 247 255 
-0.524555 0.135378 -6.6047 -0.345485 -0.901315 0.261286 208 241 248 255 
-0.529476 0.142768 -6.61597 -0.222505 -0.880373 0.418849 189 223 234 255 
-0.524499 0.135355 -6.60465 -0.408204 -0.857414 0.313387 208 241 248 255 
-0.524417 0.135273 -6.60454 -0.388569 -0.83833 0.382384 211 242 248 255 
-0.525108 0.140875 -6.61647 -0.0555847 -0.996332 0.0650565 193 224 223 255 
-0.524176 0.141994 -6.61569 -0.0668929 -0.994578 0.0796285 205 243 247 255 
-0.525693 0.139861 -6.61485 -0.191391 -0.90074 0.389919 183 212 213 255 
-0.514989 0.1431 -6.61743 -0.25864 -0.766181 0.588279 137 158 157 255 
-0.512312 0.141516 -6.618 -0.23488 -0.789574 0.566925 110 114 114 255 
-0.508954 0.141202 -6.61604 -0.492319 -0.616704 0.614246 114 118 118 255 
-0.504616 0.137665 -6.61404 -0.00487429 -0.999139 0.0412041 132 131 133 255 
-0.505285 0.139413 -6.61531 -0.454246 -0.705249 0.54432 116 114 114 255 
-0.501849 0.138166 -6.61465 -0.290741 -0.551423 0.781922 124 121 122 255 
-0.500646 0.141176 -6.61668 -0.508466 -0.581536 0.635042 116 115 115 255 
-0.496287 0.137951 -6.61279 -0.532003 0.0979051 0.841063 126 126 129 255 
-0.495529 0.138094 -6.61459 -0.230937 0.346031 0.909357 114 111 111 255 
-0.477076 0.120318 -6.58737 0.577159 0.0550538 0.814774 120 120 114 255 
-0.472044 0.120191 -6.58678 -0.385979 -0.018148 0.922329 115 115 100 255 
-0.469896 0.119031 -6.58761 0.00581192 -0.609234 0.792969 59 57 46 255 
-0.465939 0.119861 -6.58703 -0.455388 -0.789334 0.411793 86 82 77 255 
-0.460898 0.117422 -6.58628 -0.160148 -0.194218 0.967798 87 84 78 255 
-0.460898 0.117422 -6.58628 -0.160148 -0.194218 0.967798 87 84 78 255 
-0.45693 0.118033 -6.58465 -0.49575 -0.377333 0.78221 94 92 85 255 
-0.459477 0.117795 -6.58597 -0.033902 0.0630541 0.997434 94 90 84 255 
-0.454824 0.11565 -6.58345 -0.618741 -0.366154 0.695047 101 98 90 255 
-0.453381 0.118264 -6.58567 -0.549738 -0.398984 0.733894 96 92 85 255 
-0.453092 0.117103 -6.58433 -0.538066 -0.32191 0.779011 97 93 86 255 
-0.448928 0.110965 -6.57378 -0.601714 -0.382854 0.700973 103 98 91 255 
-0.44875 0.116053 -6.5844 -0.503567 0.135716 0.85323 120 114 109 255 
-0.445481 0.119102 -6.58693 -0.581978 0.0918097 0.808005 136 132 127 255 
-0.438875 0.106771 -6.57021 -0.488404 0.0777439 0.869148 130 126 111 255 
-0.436319 0.105086 -6.56645 0.394678 -0.140427 0.908025 122 117 105 255 
-0.425554 0.105845 -6.57104 0.653939 0.306577 0.691646 155 152 147 255 
-0.426737 0.11042 -6.57674 0.182581 -0.141191 0.973 142 137 133 255 
-0.420992 0.106538 -6.57128 -0.268728 0.341622 0.9006 159 154 152 255 
-0.41794 0.10474 -6.56906 -0.319353 0.300484 0.898734 179 177 175 255 
-0.4191 0.107998 -6.57316 -0.670068 -0.565079 0.481347 179 178 179 255 
-0.415099 0.0966041 -6.5566 -0.543563 -0.138795 0.827813 159 157 151 255 
-0.413363 0.0962225 -6.55732 -0.51127 -0.140364 0.84788 145 145 135 255 
-0.416296 0.1055 -6.5683 -0.419923 0.232184 0.877357 159 155 150 255 
-0.412583 0.0969257 -6.55866 -0.421561 -0.182669 0.888211 140 140 129 255 
-0.410117 0.0973437 -6.55839 -0.337413 -0.0932694 0.936725 142 142 131 255 
-0.410896 0.0972583 -6.55947 -0.442928 -0.357026 0.822404 132 133 120 255 
-0.410542 0.0968059 -6.55857 -0.336139 -0.465938 0.818482 132 132 120 255 
-0.408212 0.0983152 -6.55924 -0.312052 -0.153374 0.937603 142 142 130 255 
-0.403915 0.095582 -6.55705 -0.379595 -0.25267 0.88998 83 83 72 255 
-0.405536 0.0980571 -6.55726 -0.490123 -0.351616 0.797587 150 150 139 255 
-0.402165 0.0966853 -6.55709 -0.241502 0.0841842 0.966742 99 100 85 255 
-0.398172 0.0953321 -6.55393 -0.320278 -0.179406 0.93018 95 95 80 255 
-0.399265 0.0941511 -6.55585 -0.1946 -0.769768 0.607937 57 57 50 255 
-0.399156 0.0935178 -6.55112 -0.282204 0.0528633 0.957897 98 99 84 255 
-0.393893 0.0902582 -6.5478 -0.416308 -0.415045 0.808966 51 51 43 255 
-0.391952 0.0908339 -6.54829 -0.465532 -0.497638 0.731872 55 55 48 255 
-0.388434 0.0925683 -6.5509 0.0922025 -0.975705 0.19874 44 44 39 255 
-0.387986 0.0917406 -6.55129 -0.63644 -0.618509 0.460859 54 53 54 255 
-0.387986 0.0917406 -6.55129 -0.63644 -0.618509 0.460859 54 53 54 255 
-0.379709 0.0904524 -6.55042 -0.299718 -0.934046 0.194234 84 83 82 255 
-0.376236 0.0910707 -6.54953 -0.672532 -0.655337 0.343853 79 78 81 255 
-0.373742 0.0897306 -6.55066 -0.592981 -0.721403 0.357703 88 88 82 255 
-0.371777 0.0893856 -6.54783 -0.58066 -0.721593 0.377012 91 90 86 255 
-0.370871 0.08969 -6.54861 -0.436716 -0.864408 0.249154 90 89 84 255 
-0.369307 0.0874603 -6.54808 -0.593026 -0.722982 0.354425 84 84 78 255 
-0.367251 0.0876318 -6.54749 -0.576807 -0.743886 0.337531 89 89 84 255 
-0.365185 0.0875865 -6.54671 -0.62743 -0.546067 0.555106 86 86 79 255 
-0.36269 0.0870519 -6.54544 -0.65398 -0.631161 0.417067 90 90 85 255 
-0.357981 0.0847494 -6.54193 -0.465682 -0.550228 0.693101 80 79 76 255 
-0.355507 0.0830672 -6.54052 0.257529 -0.299266 0.91876 80 78 77 255 
-0.354749 0.0821623 -6.54143 -0.693596 -0.596335 0.404117 107 106 109 255 
-0.351943 0.082084 -6.5407 -0.393325 0.0462447 0.918236 93 90 88 255 
-0.352896 0.0820738 -6.54153 -0.260725 0.261281 0.929384 97 93 91 255 
-0.353141 0.0829054 -6.53886 -0.309611 -0.724717 0.61557 79 77 76 255 
-0.350696 0.0823435 -6.54218 -0.550405 -0.0950633 0.829468 98 94 91 255 
-0.348619 0.0817293 -6.54116 -0.561002 -0.148578 0.814372 102 97 94 255 
-0.345843 0.0806302 -6.53858 -0.290804 -0.128631 0.948097 105 101 99 255 
-0.341689 0.0805375 -6.53704 -0.54082 -0.16979 0.823823 119 115 113 255 
-0.343784 0.0809924 -6.53792 -0.496262 -0.173828 0.850592 106 102 101 255 
-0.338928 0.0784 -6.53665 -0.503202 0.0642117 0.86178 144 141 137 255 
-0.336097 0.0777517 -6.5348 -0.653031 0.0656448 0.754481 160 161 158 255 
-0.333447 0.0766236 -6.53212 -0.193988 -0.0187682 0.980824 135 135 136 255 
-0.331352 0.0771074 -6.53199 0.226138 0.0157674 0.973968 158 159 160 255 
-0.329183 0.0728285 -6.52912 -0.35893 0.0877854 0.929227 153 154 152 255 
-0.328066 0.0759121 -6.53056 -0.315268 -0.31972 0.893524 154 154 154 255 
-0.326227 0.0721102 -6.52684 -0.373424 0.329021 0.867352 151 153 153 255 
-0.322058 0.0698689 -6.52489 -0.172823 -0.0797824 0.981716 153 154 152 255 
-0.31986 0.0724169 -6.52591 -0.122672 0.306422 0.943958 145 146 146 255 
-0.318748 0.0687267 -6.5223 -0.707346 -0.568651 0.419879 153 157 162 255 
-0.31715 0.0698524 -6.52256 -0.67771 -0.542961 0.495886 150 153 159 255 
-0.313744 0.0686328 -6.52374 -0.270899 -0.181158 0.945408 160 162 165 255 
-0.314928 0.0699369 -6.52257 -0.0498326 -0.42891 0.901972 132 135 139 255 
-0.311308 0.0686888 -6.52337 0.0592412 0.0898146 0.994195 140 139 135 255 
-0.308935 0.0686808 -6.52272 -0.161455 -0.214146 0.963366 129 127 122 255 
-0.553785 0.146921 -6.6257 -0.28987 -0.85684 0.426382 191 232 254 255 
-0.546625 0.146997 -6.62584 -0.433165 -0.831227 0.348468 206 245 254 255 
-0.547012 0.149391 -6.63158 -0.462938 -0.810656 0.358505 208 249 255 255 
-0.541198 0.14574 -6.62325 -0.319103 -0.927014 0.197024 207 248 254 255 
-0.53761 0.14341 -6.62348 -0.299408 -0.871899 0.387487 194 229 236 255 
-0.527591 0.141271 -6.6195 -0.421398 -0.81946 0.38847 161 184 183 255 
-0.523311 0.139759 -6.6181 -0.16635 -0.956161 0.241004 119 131 129 255 
-0.520273 0.140745 -6.61732 0.0606719 -0.704133 0.707472 118 132 131 255 
-0.510743 0.13895 -6.61908 -0.248685 -0.931475 0.265537 129 128 130 255 
-0.506737 0.138112 -6.61462 -0.133304 -0.941288 0.310171 119 118 118 255 
-0.499127 0.135894 -6.61582 -0.416704 0.157297 0.89533 160 157 152 255 
-0.498846 0.137561 -6.61738 -0.620137 -0.462915 0.633356 172 171 166 255 
-0.4945 0.134888 -6.61232 -0.280715 -0.129771 0.950978 139 137 134 255 
-0.48826 0.129679 -6.60347 -0.548973 0.0847832 0.831529 135 137 141 255 
-0.490905 0.133869 -6.60981 -0.0161337 0.0150004 0.999757 126 124 123 255 
-0.476611 0.113786 -6.58037 -0.0181628 -0.979215 0.202012 124 123 116 255 
-0.477301 0.113849 -6.58076 0.297282 -0.952286 -0.0691029 136 135 132 255 
-0.474385 0.118953 -6.58744 0.412024 -0.542004 0.73244 116 116 102 255 
-0.472246 0.118156 -6.5887 -0.0556517 -0.734617 0.676196 73 72 59 255 
-0.469808 0.116818 -6.58888 0.227279 -0.60301 0.764672 73 70 64 255 
-0.467632 0.118089 -6.58841 -0.445011 -0.793664 0.414805 74 70 68 255 
-0.465254 0.116569 -6.58839 -0.30175 -0.495738 0.814366 94 91 87 255 
-0.462929 0.117386 -6.58868 -0.594501 0.0541378 0.80227 103 102 98 255 
-0.463614 0.11653 -6.58892 -0.286573 -0.147587 0.946622 92 89 83 255 
-0.463614 0.11653 -6.58892 -0.286573 -0.147587 0.946622 92 89 83 255 
-0.463614 0.11653 -6.58892 -0.286573 -0.147587 0.946622 92 89 83 255 
-0.455492 0.109147 -6.57659 0.180912 -0.417103 0.890672 112 109 101 255 
-0.454836 0.110561 -6.57824 -0.0733652 0.304519 0.949677 105 101 91 255 
-0.45466 0.110252 -6.5776 -0.0748538 -0.334674 0.939356 102 99 91 255 
-0.450099 0.108798 -6.57609 -0.473514 -0.35852 0.804517 112 107 98 255 
-0.447233 0.108058 -6.57355 -0.624798 -0.283908 0.72734 127 120 113 255 
-0.442966 0.104823 -6.57233 -0.547594 -0.620818 0.561004 111 108 91 255 
-0.440949 0.101641 -6.56735 -0.645264 -0.53592 0.544448 105 103 84 255 
-0.43746 0.102243 -6.56535 0.42303 -0.0258835 0.905746 103 101 85 255 
-0.42277 0.101938 -6.56864 -0.228113 0.358697 0.905153 157 157 149 255 
-0.419949 0.103794 -6.56915 -0.172954 0.389836 0.904497 163 161 155 255 
-0.415251 0.0981725 -6.56203 0.306977 0.292897 0.905525 134 134 124 255 
-0.411588 0.0952227 -6.55968 -0.391983 -0.0723402 0.917124 79 80 68 255 
-0.403758 0.0937991 -6.55884 -0.370875 -0.843981 0.38749 61 61 58 255 
-0.401134 0.0932737 -6.55617 -0.296252 -0.798832 0.523547 47 46 42 255 
-0.398422 0.0935407 -6.55556 -0.417095 -0.734568 0.535203 58 57 52 255 
-0.40076 0.0948823 -6.55736 -0.318755 -0.580047 0.749627 53 53 47 255 
-0.39559 0.0891954 -6.55151 -0.379056 -0.638547 0.669756 64 63 61 255 
-0.398091 0.0939628 -6.55618 -0.529922 -0.527593 0.663948 58 58 53 255 
-0.389356 0.0901676 -6.55468 -0.665357 -0.638915 0.38612 81 81 80 255 
-0.387723 0.09086 -6.55383 -0.66709 -0.69316 0.272984 71 72 72 255 
-0.38416 0.0896396 -6.55357 -0.674369 -0.67857 0.291152 94 93 91 255 
-0.375766 0.0878217 -6.55124 -0.628118 -0.737259 0.248829 86 87 87 255 
-0.365651 0.083573 -6.54533 -0.679441 -0.614795 0.400483 85 86 88 255 
-0.36817 0.0854421 -6.54843 -0.538463 -0.281093 0.794383 72 72 69 255 
-0.365961 0.0846253 -6.54634 -0.606333 -0.429868 0.669009 74 74 71 255 
-0.363309 0.0843942 -6.54628 -0.173171 -0.384717 0.906645 79 77 76 255 
-0.359993 0.081952 -6.54448 -0.654496 -0.498481 0.568465 100 97 97 255 
-0.360919 0.0840977 -6.54535 -0.247735 -0.348121 0.904124 83 82 81 255 
-0.357511 0.0816406 -6.54325 -0.437687 -0.228611 0.869579 101 98 97 255 
-0.355305 0.0822797 -6.54329 -0.493727 -0.207814 0.844421 103 100 98 255 
-0.351519 0.079273 -6.54091 -0.357831 -0.0925829 0.929185 110 105 101 255 
-0.349972 0.079655 -6.54196 -0.612848 0.0986157 0.784023 122 117 115 255 
-0.347107 0.078914 -6.53994 -0.143817 -0.197177 0.969762 113 107 103 255 
-0.347911 0.0790848 -6.54102 -0.396947 -0.294252 0.869396 112 106 101 255 
-0.344971 0.0784311 -6.5395 -0.519144 -0.516764 0.680768 126 120 115 255 
-0.342975 0.0784287 -6.53787 -0.509003 -0.455465 0.730388 120 114 110 255 
-0.341162 0.0761776 -6.53707 -0.541027 0.150525 0.827425 138 135 128 255 
-0.338413 0.0761675 -6.5363 -0.672486 -0.0360951 0.739229 162 162 155 255 
-0.334737 0.0742032 -6.53221 -0.263998 0.297999 0.917334 141 141 139 255 
-0.332126 0.0747869 -6.53259 0.405303 -0.255061 0.87788 145 146 146 255 
-0.327761 0.0699697 -6.52769 -0.556343 0.16156 0.815096 142 144 143 255 
-0.326788 0.0699352 -6.52642 -0.817706 -0.43103 0.381536 168 173 175 255 
-0.323276 0.0675151 -6.52498 -0.169085 -0.0795139 0.982389 135 136 136 255 
-0.324488 0.0691246 -6.52436 -0.523863 -0.387618 0.758499 146 147 146 255 
-0.320785 0.0678267 -6.52503 -0.733963 -0.056279 0.676853 176 176 176 255 
