-0.624400 -0.147362 -6.676510 
-0.536404 -0.159092 -6.627400 
-0.394264 -0.179269 -6.541950 
-0.388301 -0.183056 -6.522800 
-0.378142 -0.179630 -6.544180 
-0.537484 -0.160941 -6.627680 
-0.532853 -0.162808 -6.621720 
-0.469603 -0.170451 -6.591080 
-0.445320 -0.176059 -6.564140 
-0.370880 -0.180881 -6.539860 
-0.621794 -0.152998 -6.670820 
-0.517092 -0.170066 -6.596380 
-0.495856 -0.171109 -6.592540 
-0.459528 -0.175140 -6.579870 
-0.653360 -0.158188 -6.668650 
-0.509539 -0.172982 -6.594590 
-0.454937 -0.177767 -6.578060 
-0.601764 -0.165961 -6.638880 
-0.422656 -0.181728 -6.564340 
-0.536726 -0.173353 -6.612240 
-0.452611 -0.180327 -6.579400 
-0.437122 -0.181999 -6.573880 
-0.420479 -0.185528 -6.564320 
-0.417304 -0.188492 -6.542570 
-0.414827 -0.188515 -6.541880 
-0.414793 -0.188536 -6.541840 
-0.413979 -0.188796 -6.540410 
-0.379116 -0.188342 -6.550850 
-0.531052 -0.175384 -6.615270 
-0.531040 -0.175468 -6.615540 
-0.447653 -0.182412 -6.579710 
-0.437469 -0.183453 -6.575050 
-0.423476 -0.184403 -6.570560 
-0.420655 -0.186610 -6.568580 
-0.420690 -0.186587 -6.568680 
-0.420673 -0.186966 -6.566740 
-0.421289 -0.186382 -6.569360 
-0.419111 -0.185710 -6.564290 
-0.388848 -0.187755 -6.554790 
-0.568077 -0.174214 -6.631000 
-0.568458 -0.174204 -6.631260 
-0.568739 -0.174822 -6.628130 
-0.528043 -0.178501 -6.611010 
-0.525176 -0.178008 -6.611800 
-0.431871 -0.186742 -6.572450 
-0.430002 -0.186767 -6.572390 
-0.428257 -0.186671 -6.571820 
-0.422573 -0.186612 -6.571970 
-0.422573 -0.186612 -6.571970 
-0.417745 -0.189527 -6.563020 
-0.417618 -0.189584 -6.562770 
-0.569322 -0.175946 -6.633450 
-0.534146 -0.178364 -6.619870 
-0.496049 -0.185001 -6.598310 
-0.420324 -0.188567 -6.571750 
-0.418650 -0.189042 -6.569430 
-0.622444 -0.173531 -6.661220 
-0.357812 -0.198634 -6.536620 
-0.690746 -0.169278 -6.688160 
-0.618319 -0.175890 -6.659610 
-0.423352 -0.194574 -6.568960 
-0.598985 -0.179210 -6.651730 
-0.598073 -0.181041 -6.652680 
-0.587281 -0.180686 -6.646770 
-0.589305 -0.180781 -6.646700 
-0.414413 -0.201002 -6.546470 
-0.412648 -0.200892 -6.545560 
-0.413588 -0.205351 -6.533950 
-0.534271 -0.194298 -6.623130 
-0.474730 -0.199730 -6.594210 
-0.387165 -0.206823 -6.556960 
-0.383378 -0.207064 -6.554260 
-0.594934 -0.191435 -6.650610 
-0.467842 -0.202484 -6.591470 
-0.446082 -0.204747 -6.584840 
-0.539680 -0.199955 -6.622680 
-0.535853 -0.198280 -6.623630 
-0.500638 -0.203020 -6.596730 
-0.497965 -0.202530 -6.599990 
-0.518783 -0.206016 -6.616370 
-0.413204 -0.215653 -6.565220 
-0.514662 -0.213560 -6.609100 
-0.407211 -0.223860 -6.538900 
-0.458875 -0.217680 -6.588290 
-0.411869 -0.221849 -6.570080 
-0.357523 -0.226468 -6.538480 
-0.513444 -0.220425 -6.605780 
-0.632279 -0.211742 -6.670600 
-0.585236 -0.215671 -6.650180 
-0.504623 -0.223236 -6.601150 
-0.445642 -0.225416 -6.588700 
-0.440951 -0.224585 -6.586470 
-0.605641 -0.217412 -6.663270 
-0.597933 -0.217451 -6.663670 
-0.388776 -0.234581 -6.551380 
-0.608317 -0.218311 -6.673740 
-0.609428 -0.218225 -6.675810 
-0.609432 -0.218100 -6.675670 
-0.609904 -0.218790 -6.672640 
-0.498852 -0.228741 -6.600240 
-0.496768 -0.228680 -6.599750 
-0.457987 -0.229585 -6.596760 
-0.457299 -0.230058 -6.594320 
-0.379527 -0.236181 -6.554920 
-0.616609 -0.221210 -6.672520 
-0.613475 -0.220977 -6.684860 
-0.613090 -0.221487 -6.684990 
-0.613388 -0.219992 -6.683950 
-0.498020 -0.230863 -6.599420 
-0.376126 -0.238667 -6.550310 
-0.618924 -0.223925 -6.684650 
-0.618365 -0.221866 -6.691470 
-0.497057 -0.232794 -6.598680 
-0.517715 -0.233014 -6.618170 
-0.497383 -0.236212 -6.597910 
-0.499800 -0.238192 -6.600090 
-0.472898 -0.235241 -6.614160 
-0.359063 -0.244036 -6.543760 
-0.636070 -0.229905 -6.680480 
-0.636043 -0.229911 -6.680430 
-0.611204 -0.224102 -6.726910 
-0.362764 -0.246836 -6.542230 
-0.363073 -0.247290 -6.543780 
-0.513544 -0.239660 -6.612490 
-0.509454 -0.241884 -6.606480 
-0.498672 -0.241698 -6.597590 
-0.513356 -0.242070 -6.613570 
-0.398130 -0.220317 -6.816400 
-0.512103 -0.248011 -6.609960 
-0.512103 -0.248011 -6.609960 
-0.507713 -0.249320 -6.604320 
-0.479802 -0.252560 -6.610180 
-0.652662 -0.248279 -6.667060 
-0.621455 -0.241767 -6.749070 
-0.490376 -0.255711 -6.602510 
-0.487675 -0.255950 -6.600220 
-0.466343 -0.249867 -6.671700 
-0.675805 -0.252351 -6.677680 
-0.461468 -0.255556 -6.632840 
-0.400640 -0.240730 -6.796310 
-0.619027 -0.248100 -6.749550 
-0.503234 -0.260360 -6.605630 
-0.490615 -0.260520 -6.604150 
-0.407823 -0.236902 -6.852620 
-0.400663 -0.245409 -6.801720 
-0.367070 -0.266441 -6.546530 
-0.365364 -0.267171 -6.545120 
-0.618901 -0.251657 -6.775980 
-0.399265 -0.247667 -6.802880 
-0.404763 -0.250139 -6.813530 
-0.359517 -0.271483 -6.544710 
-0.630248 -0.266800 -6.651840 
-0.479462 -0.264656 -6.662270 
-0.583982 -0.271040 -6.619750 
-0.520198 -0.270033 -6.613020 
-0.404496 -0.254167 -6.812350 
-0.618909 -0.266679 -6.688250 
-0.617319 -0.267102 -6.685810 
-0.549635 -0.272191 -6.637120 
-0.532839 -0.272200 -6.620210 
-0.516770 -0.271847 -6.612310 
-0.435198 -0.273780 -6.603780 
-0.430781 -0.274117 -6.601420 
-0.427637 -0.274826 -6.591810 
-0.427607 -0.274837 -6.591650 
-0.359879 -0.276365 -6.544230 
-0.602117 -0.271047 -6.659710 
-0.585684 -0.273795 -6.624950 
-0.580871 -0.273968 -6.619830 
-0.542531 -0.273393 -6.629650 
-0.534701 -0.274172 -6.617990 
-0.527283 -0.274348 -6.614750 
-0.473546 -0.274042 -6.630660 
-0.431105 -0.274355 -6.599860 
-0.430302 -0.274583 -6.599120 
-0.430535 -0.275992 -6.595460 
-0.370224 -0.279711 -6.519610 
-0.369671 -0.280745 -6.528180 
-0.363704 -0.278765 -6.546940 
-0.564520 -0.275667 -6.623550 
-0.541366 -0.276699 -6.620170 
-0.437829 -0.279070 -6.574590 
-0.438359 -0.278780 -6.577730 
-0.438359 -0.278780 -6.577730 
-0.438358 -0.278781 -6.577710 
-0.433389 -0.277740 -6.602810 
-0.358902 -0.281171 -6.543260 
-0.438557 -0.282187 -6.578410 
-0.452418 -0.282133 -6.611140 
-0.446800 -0.282950 -6.593980 
-0.435993 -0.283992 -6.578100 
-0.533149 -0.282555 -6.648370 
-0.447702 -0.284750 -6.601430 
-0.362280 -0.288463 -6.545570 
-0.588721 -0.284479 -6.671870 
-0.441487 -0.286605 -6.604210 
-0.439870 -0.287909 -6.601800 
-0.471328 -0.289255 -6.620890 
-0.440513 -0.290111 -6.601740 
-0.430805 -0.292413 -6.600880 
-0.430793 -0.292415 -6.600820 
-0.430698 -0.292245 -6.600290 
-0.366535 -0.293738 -6.549100 
-0.367730 -0.293938 -6.562820 
-0.482123 -0.293062 -6.612820 
-0.482075 -0.293023 -6.612630 
-0.433015 -0.294061 -6.600720 
-0.374359 -0.291427 -6.631560 
-0.422823 -0.294854 -6.596910 
-0.388151 -0.296663 -6.561440 
-0.378885 -0.295011 -6.633550 
-0.623978 -0.294851 -6.697210 
-0.423621 -0.297731 -6.599050 
-0.570164 -0.299165 -6.664110 
-0.474359 -0.299260 -6.622150 
-0.383671 -0.301304 -6.631790 
-0.388671 -0.303235 -6.626730 
-0.383503 -0.303608 -6.631660 
-0.577382 -0.304462 -6.668610 
-0.574273 -0.304516 -6.667750 
-0.376708 -0.305054 -6.635470 
-0.525098 -0.308448 -6.619340 
-0.397434 -0.306600 -6.611980 
-0.567120 -0.310481 -6.660160 
-0.551230 -0.310062 -6.656820 
-0.529156 -0.310488 -6.622060 
-0.364317 -0.311154 -6.544530 
-0.466990 -0.312743 -6.621430 
-0.576038 -0.313848 -6.665810 
-0.573867 -0.313849 -6.666400 
-0.554210 -0.314019 -6.657870 
-0.551518 -0.314036 -6.657210 
-0.545959 -0.314305 -6.655250 
-0.364486 -0.313536 -6.545280 
-0.639093 -0.316026 -6.687410 
-0.550686 -0.317773 -6.624810 
-0.543395 -0.319974 -6.609360 
-0.550571 -0.320113 -6.633080 
-0.543429 -0.321940 -6.609680 
-0.543439 -0.321934 -6.609960 
-0.545128 -0.321949 -6.626640 
-0.446200 -0.321182 -6.595280 
-0.542380 -0.324359 -6.618920 
-0.367386 -0.323935 -6.548080 
-0.542192 -0.326881 -6.623960 
-0.411479 -0.327302 -6.528050 
-0.414042 -0.328371 -6.546040 
-0.416482 -0.328951 -6.551250 
-0.362941 -0.328543 -6.539360 
-0.522972 -0.334908 -6.577480 
-0.520213 -0.338336 -6.581080 
-0.558683 -0.342331 -6.649210 
-0.518262 -0.339710 -6.579380 
-0.584329 -0.344722 -6.652970 
-0.581985 -0.344046 -6.657820 
-0.619071 -0.351493 -6.625640 
-0.485037 -0.356799 -6.601940 
-0.380427 0.107006 -6.555030 
-0.323181 0.074183 -6.528200 
-0.323181 0.074183 -6.528200 
-0.323181 0.074183 -6.528200 
-0.481422 0.115491 -6.590120 
-0.578440 0.150864 -6.649020 
-0.391057 0.087500 -6.558900 
-0.323451 0.064756 -6.528190 
-0.596325 0.149079 -6.656120 
-0.511371 0.125032 -6.617970 
-0.511430 0.124995 -6.617930 
-0.510179 0.123686 -6.616380 
-0.650480 0.133989 -6.648580 
-0.589827 0.139030 -6.657230 
-0.610937 0.142976 -6.667190 
-0.550037 0.116858 -6.627790 
-0.537874 0.111203 -6.617080 
-0.414753 0.076189 -6.566660 
-0.329214 0.053792 -6.532670 
-0.559297 0.112333 -6.626210 
-0.563928 0.119855 -6.637970 
-0.663433 0.143497 -6.674190 
-0.575165 0.123207 -6.646730 
-0.575150 0.123160 -6.646660 
-0.567595 0.115801 -6.635410 
-0.567835 0.122589 -6.645440 
-0.361348 0.060704 -6.550320 
-0.674655 0.139496 -6.673570 
-0.601969 0.130352 -6.663500 
-0.586773 0.124146 -6.652210 
-0.563411 0.099241 -6.612290 
-0.559995 0.109618 -6.628210 
-0.358911 0.056234 -6.546960 
-0.649974 0.142203 -6.682950 
-0.614056 0.132732 -6.668330 
-0.601201 0.126508 -6.660770 
-0.602723 0.126911 -6.662630 
-0.602240 0.128600 -6.665230 
-0.596505 0.123632 -6.656130 
-0.575566 0.098161 -6.614160 
-0.575617 0.098255 -6.614310 
-0.583862 0.113298 -6.640560 
-0.582082 0.111553 -6.638450 
-0.579973 0.109133 -6.633790 
-0.570096 0.106780 -6.626730 
-0.529266 0.098183 -6.616250 
-0.456603 0.081240 -6.589280 
-0.449987 0.078258 -6.586430 
-0.697819 0.135445 -6.677180 
-0.692537 0.149993 -6.703270 
-0.674225 0.144959 -6.694100 
-0.531287 0.098310 -6.618660 
-0.403229 0.063131 -6.567300 
-0.356248 0.056143 -6.553660 
-0.724046 0.153621 -6.711820 
-0.696174 0.147324 -6.704700 
-0.693351 0.148334 -6.703430 
-0.693790 0.151056 -6.706210 
-0.689353 0.147734 -6.703050 
-0.619552 0.123536 -6.667030 
-0.596393 0.107187 -6.636200 
-0.391125 0.057190 -6.559640 
-0.356133 0.053834 -6.554560 
-0.356269 0.053262 -6.555570 
-0.356250 0.053216 -6.555480 
-0.356250 0.053216 -6.555480 
-0.616824 0.116326 -6.659900 
-0.355960 0.051218 -6.554920 
-0.354123 0.050441 -6.554360 
-0.685584 0.137524 -6.697820 
-0.664609 0.130542 -6.687510 
-0.653391 0.128958 -6.682660 
-0.583401 0.101887 -6.640560 
-0.542116 0.093322 -6.627920 
-0.540172 0.094245 -6.627630 
-0.511134 0.086073 -6.615810 
-0.325039 0.032709 -6.527530 
-0.680724 0.135425 -6.697610 
-0.595576 0.103818 -6.647990 
-0.544109 0.091408 -6.628690 
-0.537679 0.088971 -6.625020 
-0.528275 0.088231 -6.623950 
-0.519838 0.087209 -6.619450 
-0.517735 0.086099 -6.620010 
-0.362520 0.048091 -6.559040 
-0.690923 0.135747 -6.702620 
-0.641541 0.110698 -6.660730 
-0.576435 0.097460 -6.640460 
-0.559990 0.093632 -6.633290 
-0.560574 0.094200 -6.634150 
-0.537308 0.086653 -6.626280 
-0.356347 0.044013 -6.555210 
-0.351142 0.041682 -6.552760 
-0.684630 0.128494 -6.697780 
-0.684630 0.128494 -6.697780 
-0.624747 0.102976 -6.656510 
-0.581199 0.096038 -6.645080 
-0.536275 0.085201 -6.626570 
-0.519707 0.081492 -6.619680 
-0.707134 0.136727 -6.714780 
-0.698607 0.130162 -6.704470 
-0.677840 0.113192 -6.677560 
-0.677840 0.113192 -6.677560 
-0.659406 0.110936 -6.670020 
-0.584037 0.096164 -6.647680 
-0.515978 0.080673 -6.625220 
-0.515978 0.080673 -6.625220 
-0.495597 0.068886 -6.604390 
-0.487237 0.066637 -6.599100 
-0.681472 0.110117 -6.677550 
-0.582672 0.093649 -6.647790 
-0.404956 0.050152 -6.577460 
-0.339239 0.026730 -6.538080 
-0.701640 0.119335 -6.694090 
-0.683833 0.111509 -6.680320 
-0.671600 0.108644 -6.677540 
-0.656127 0.103017 -6.669050 
-0.435451 0.048962 -6.581290 
-0.331675 0.018670 -6.531560 
-0.751108 0.135153 -6.726340 
-0.729637 0.120772 -6.706000 
-0.730735 0.126517 -6.712750 
-0.735859 0.131683 -6.722200 
-0.689396 0.112040 -6.686730 
-0.620213 0.096954 -6.663730 
-0.617412 0.097907 -6.663710 
-0.517824 0.074234 -6.628160 
-0.504761 0.064345 -6.610780 
-0.495809 0.060975 -6.602400 
-0.728932 0.118599 -6.705710 
-0.481225 0.055632 -6.599670 
-0.739778 0.122862 -6.715470 
-0.733526 0.114759 -6.702810 
-0.390302 0.032921 -6.568430 
-0.355346 0.024737 -6.554220 
-0.738610 0.112735 -6.704720 
-0.734217 0.110826 -6.703290 
-0.480422 0.049491 -6.597680 
-0.354892 0.021915 -6.554090 
-0.350282 0.019039 -6.548670 
-0.569218 0.078483 -6.652570 
-0.407308 0.036518 -6.580320 
-0.350833 0.018673 -6.551900 
-0.337710 0.010470 -6.535170 
-0.542599 0.062279 -6.629940 
-0.392615 0.026707 -6.569920 
-0.356905 0.020247 -6.556060 
-0.739390 0.106737 -6.711010 
-0.629698 0.084192 -6.669890 
-0.449388 0.039356 -6.595740 
-0.394485 0.025154 -6.571290 
-0.706469 0.097674 -6.703190 
-0.706141 0.099312 -6.701970 
-0.704823 0.099305 -6.702610 
-0.662297 0.088790 -6.683130 
-0.603469 0.077883 -6.667530 
-0.603469 0.077883 -6.667530 
-0.447920 0.033909 -6.592080 
-0.354104 0.013709 -6.554590 
-0.597674 0.070450 -6.656070 
-0.554856 0.059289 -6.641030 
-0.449509 0.034386 -6.595640 
-0.370674 0.016638 -6.562370 
-0.352324 0.010868 -6.554900 
-0.740247 0.101136 -6.715750 
-0.469414 0.035129 -6.601860 
-0.700680 0.089299 -6.702000 
-0.630879 0.069657 -6.669530 
-0.391004 0.014054 -6.569720 
-0.509939 0.041423 -6.623460 
-0.390197 0.010575 -6.567790 
-0.672435 0.080384 -6.697510 
-0.600255 0.063139 -6.665720 
-0.556318 0.049046 -6.645540 
-0.654738 0.066032 -6.681100 
-0.355258 -0.005193 -6.551270 
-0.355258 -0.005193 -6.551270 
-0.723468 0.084109 -6.720940 
-0.678048 0.075521 -6.704050 
-0.573305 0.048102 -6.652280 
-0.356839 -0.009552 -6.548940 
-0.599709 0.052799 -6.666870 
-0.599709 0.052799 -6.666870 
-0.358560 -0.010646 -6.550590 
-0.679585 0.066431 -6.701690 
-0.483395 0.013616 -6.601250 
-0.480724 0.012880 -6.599250 
-0.445836 0.005328 -6.583220 
-0.328084 -0.025908 -6.525380 
-0.734104 0.075252 -6.721780 
-0.630201 0.048997 -6.672870 
-0.597782 0.045333 -6.663350 
-0.503044 0.019325 -6.616460 
-0.501904 0.019540 -6.616890 
-0.449957 0.008399 -6.596690 
-0.333891 -0.024497 -6.532200 
-0.736851 0.073169 -6.723320 
-0.501960 0.017362 -6.616880 
-0.502732 0.017385 -6.617860 
-0.397626 -0.008715 -6.567140 
-0.742969 0.071007 -6.725630 
-0.647019 0.046712 -6.674630 
-0.559706 0.030910 -6.646350 
-0.357137 -0.020408 -6.549780 
-0.355029 -0.020261 -6.549110 
-0.559653 0.026218 -6.646270 
-0.555605 0.028207 -6.645820 
-0.546165 0.021917 -6.635970 
-0.497557 0.008957 -6.608510 
-0.441722 -0.004445 -6.584860 
-0.420825 -0.003822 -6.585470 
-0.363627 -0.020978 -6.553610 
-0.361597 -0.020574 -6.553420 
-0.667302 0.051071 -6.697110 
-0.597386 0.032986 -6.660130 
-0.448756 -0.006732 -6.586290 
-0.448756 -0.006745 -6.586260 
-0.446654 -0.006070 -6.587650 
-0.440064 -0.007489 -6.585030 
-0.433750 -0.008932 -6.582170 
-0.365804 -0.023794 -6.552010 
-0.364735 -0.022935 -6.553470 
-0.458563 -0.003416 -6.598200 
-0.458493 -0.003711 -6.597600 
-0.458563 -0.003416 -6.598200 
-0.451108 -0.008960 -6.586970 
-0.448757 -0.006258 -6.588150 
-0.446645 -0.009256 -6.585720 
-0.370633 -0.024481 -6.555500 
-0.368760 -0.030056 -6.543820 
-0.369002 -0.031670 -6.540620 
-0.365930 -0.031800 -6.539380 
-0.664286 0.042917 -6.691360 
-0.604380 0.030497 -6.667230 
-0.566518 0.020614 -6.649840 
-0.563606 0.020844 -6.648840 
-0.474879 -0.004919 -6.598030 
-0.453804 -0.006280 -6.595380 
-0.383295 -0.026668 -6.555540 
-0.381673 -0.029022 -6.551370 
-0.567597 0.018039 -6.650370 
-0.462772 -0.005514 -6.600220 
-0.459468 -0.009322 -6.595610 
-0.452582 -0.009302 -6.595100 
-0.452549 -0.009068 -6.595570 
-0.452549 -0.009068 -6.595570 
-0.452006 -0.009037 -6.595500 
-0.449833 -0.010548 -6.590300 
-0.728088 0.052419 -6.723350 
-0.566028 0.015334 -6.649580 
-0.464428 -0.008754 -6.598720 
-0.456989 -0.010668 -6.596220 
-0.452832 -0.013523 -6.592110 
-0.732658 0.050449 -6.725080 
-0.597929 0.018476 -6.662860 
-0.597821 0.018100 -6.662180 
-0.557786 0.006234 -6.635730 
-0.559242 0.011661 -6.644620 
-0.559591 0.013022 -6.647430 
-0.500396 -0.006110 -6.608680 
-0.454840 -0.013402 -6.594180 
-0.375345 -0.038105 -6.542910 
-0.348935 -0.045080 -6.531640 
-0.608509 0.021391 -6.670550 
-0.560671 0.009463 -6.646090 
-0.522322 0.001660 -6.629640 
-0.456929 -0.016060 -6.595000 
-0.454763 -0.015489 -6.595210 
-0.430026 -0.031679 -6.562580 
-0.428926 -0.031008 -6.563510 
-0.393278 -0.036829 -6.552020 
-0.460800 -0.017266 -6.598160 
-0.458275 -0.017327 -6.597310 
-0.457338 -0.019500 -6.596490 
-0.450090 -0.031399 -6.568640 
-0.451080 -0.033151 -6.565540 
-0.450092 -0.031463 -6.568440 
-0.449234 -0.029448 -6.572200 
-0.523930 -0.005133 -6.628440 
-0.490050 -0.022575 -6.592830 
-0.463467 -0.021239 -6.597970 
-0.462160 -0.019581 -6.598740 
-0.459710 -0.019570 -6.597550 
-0.460002 -0.019402 -6.598330 
-0.458973 -0.020552 -6.595860 
-0.450216 -0.037628 -6.559660 
-0.452017 -0.034859 -6.562580 
-0.432383 -0.073035 -6.479450 
-0.349128 -0.048820 -6.537050 
-0.610283 0.012456 -6.673760 
-0.601655 0.006471 -6.657620 
-0.462812 -0.023512 -6.594380 
-0.453564 -0.035963 -6.570030 
-0.433517 -0.075146 -6.480890 
-0.597979 0.002369 -6.653720 
-0.598111 0.002214 -6.653700 
-0.523119 -0.012414 -6.626050 
-0.499635 -0.026307 -6.593350 
-0.475161 -0.029841 -6.586800 
-0.460974 -0.032692 -6.582720 
-0.460660 -0.033119 -6.581520 
-0.454644 -0.040216 -6.564100 
-0.450759 -0.029745 -6.590220 
-0.424633 -0.040008 -6.565310 
-0.353288 -0.051699 -6.541600 
-0.339000 -0.057509 -6.528010 
-0.665990 0.019048 -6.694550 
-0.531367 -0.012784 -6.631190 
-0.463746 -0.033436 -6.583760 
-0.448104 -0.032030 -6.588900 
-0.416077 -0.055466 -6.532940 
-0.375514 -0.048274 -6.551300 
-0.608099 0.005531 -6.671380 
-0.533892 -0.013608 -6.630440 
-0.460610 -0.037230 -6.582790 
-0.434938 -0.040359 -6.572520 
-0.435071 -0.041407 -6.572460 
-0.429060 -0.046842 -6.561360 
-0.353586 -0.055294 -6.541780 
-0.336253 -0.064240 -6.525090 
-0.654043 0.005332 -6.678410 
-0.648979 0.004104 -6.676450 
-0.630850 0.000644 -6.671150 
-0.629717 0.002937 -6.671460 
-0.573916 -0.007165 -6.649700 
-0.564483 -0.012433 -6.642700 
-0.550586 -0.014731 -6.635780 
-0.542138 -0.017695 -6.628790 
-0.460581 -0.039031 -6.582510 
-0.458941 -0.042812 -6.574540 
-0.665700 0.007145 -6.691190 
-0.657666 0.003096 -6.680530 
-0.647980 0.001702 -6.676800 
-0.554347 -0.019023 -6.633840 
-0.546174 -0.020121 -6.627790 
-0.520114 -0.031408 -6.606090 
-0.461748 -0.039593 -6.586040 
-0.459555 -0.040011 -6.584780 
-0.459029 -0.041492 -6.585180 
-0.354598 -0.061432 -6.540960 
-0.679213 0.010736 -6.702330 
-0.668294 0.007459 -6.694120 
-0.659887 -0.000514 -6.679940 
-0.603304 -0.007355 -6.661640 
-0.528614 -0.029844 -6.613170 
-0.522374 -0.030086 -6.611020 
-0.518626 -0.032211 -6.608410 
-0.457145 -0.043964 -6.582510 
-0.456308 -0.043241 -6.584780 
-0.374512 -0.057474 -6.552870 
-0.357475 -0.062680 -6.542030 
-0.676040 0.004586 -6.698100 
-0.663258 0.000228 -6.687320 
-0.561647 -0.024664 -6.628020 
-0.515067 -0.035371 -6.605680 
-0.486681 -0.040252 -6.594400 
-0.456927 -0.043794 -6.585890 
-0.457699 -0.043337 -6.586760 
-0.452230 -0.049598 -6.573370 
-0.695543 0.006350 -6.702710 
-0.670756 -0.000696 -6.693440 
-0.616414 -0.010280 -6.669740 
-0.604306 -0.021006 -6.644880 
-0.513513 -0.036806 -6.608910 
-0.474963 -0.042629 -6.595440 
-0.458063 -0.046126 -6.585960 
-0.454943 -0.045874 -6.587680 
-0.425547 -0.093437 -6.476880 
-0.682836 -0.000071 -6.700740 
-0.684614 0.001397 -6.704280 
-0.685266 0.001566 -6.704690 
-0.613441 -0.015483 -6.660270 
-0.595466 -0.029224 -6.632750 
-0.591831 -0.027072 -6.633150 
-0.475006 -0.044397 -6.597050 
-0.470156 -0.046315 -6.592300 
-0.463481 -0.047222 -6.589160 
-0.454577 -0.047912 -6.587700 
-0.370677 -0.067795 -6.544660 
-0.686642 0.000266 -6.703790 
-0.605122 -0.025901 -6.645260 
-0.533412 -0.036897 -6.620160 
-0.466254 -0.049647 -6.590000 
-0.462488 -0.051021 -6.591030 
-0.459403 -0.049279 -6.590160 
-0.460103 -0.051456 -6.589770 
-0.457153 -0.049481 -6.589400 
-0.400576 -0.078733 -6.520530 
-0.401366 -0.078097 -6.523820 
-0.393642 -0.074116 -6.535640 
-0.393642 -0.074116 -6.535640 
-0.353760 -0.070727 -6.543020 
-0.698225 -0.002813 -6.702210 
-0.645918 -0.019482 -6.664540 
-0.466944 -0.050516 -6.593820 
-0.464932 -0.050464 -6.592590 
-0.459391 -0.052389 -6.588410 
-0.733879 0.002991 -6.721470 
-0.654691 -0.021444 -6.664290 
-0.639547 -0.025977 -6.655390 
-0.541358 -0.039169 -6.624890 
-0.533399 -0.040586 -6.623130 
-0.533093 -0.041127 -6.624470 
-0.491679 -0.053918 -6.593830 
-0.472554 -0.051494 -6.596510 
-0.469208 -0.053544 -6.593770 
-0.465984 -0.055311 -6.590480 
-0.465514 -0.052258 -6.594240 
-0.462039 -0.056854 -6.587960 
-0.462542 -0.056218 -6.589000 
-0.439659 -0.100678 -6.475000 
-0.664214 -0.022009 -6.669860 
-0.654526 -0.023642 -6.665310 
-0.644499 -0.027132 -6.659420 
-0.647824 -0.025967 -6.663420 
-0.608254 -0.031864 -6.651780 
-0.606971 -0.030159 -6.650250 
-0.603119 -0.034555 -6.641850 
-0.583910 -0.034091 -6.642280 
-0.470494 -0.055939 -6.595480 
-0.437691 -0.104349 -6.470610 
-0.387374 -0.085165 -6.525000 
-0.716556 -0.015080 -6.695120 
-0.707388 -0.016923 -6.687730 
-0.631384 -0.028604 -6.661070 
-0.602177 -0.037203 -6.643450 
-0.552226 -0.042664 -6.631880 
-0.499422 -0.054864 -6.601570 
-0.474857 -0.057202 -6.597220 
-0.475104 -0.056931 -6.597980 
-0.410001 -0.097700 -6.493360 
-0.388785 -0.082790 -6.536540 
-0.680882 -0.023785 -6.677460 
-0.676740 -0.024850 -6.675160 
-0.660108 -0.027468 -6.670680 
-0.631480 -0.029893 -6.664390 
-0.607560 -0.034913 -6.656280 
-0.543058 -0.045545 -6.628110 
-0.477166 -0.058640 -6.599050 
-0.474868 -0.060376 -6.596160 
-0.378891 -0.087098 -6.528020 
-0.605720 -0.037259 -6.657560 
-0.513706 -0.054917 -6.615830 
-0.474768 -0.060501 -6.597730 
-0.474768 -0.060501 -6.597730 
-0.474768 -0.060501 -6.597730 
-0.520942 -0.055470 -6.618420 
-0.509968 -0.058141 -6.613290 
-0.462940 -0.072853 -6.576060 
-0.459147 -0.076772 -6.566050 
-0.388389 -0.080751 -6.554550 
-0.388617 -0.080759 -6.554430 
-0.348563 -0.087440 -6.539660 
-0.335239 -0.093158 -6.528160 
-0.688219 -0.027898 -6.687700 
-0.505774 -0.063574 -6.606840 
-0.470495 -0.070376 -6.588360 
-0.470173 -0.070706 -6.588520 
-0.460075 -0.080790 -6.561670 
-0.346034 -0.091301 -6.535210 
-0.478706 -0.069062 -6.599250 
-0.478296 -0.067711 -6.598560 
-0.476106 -0.068435 -6.595490 
-0.461552 -0.086759 -6.548440 
-0.459289 -0.085953 -6.549750 
-0.457288 -0.088644 -6.546970 
-0.456274 -0.087490 -6.549240 
-0.438903 -0.113104 -6.478540 
-0.438903 -0.113104 -6.478540 
-0.364737 -0.088331 -6.547750 
-0.347410 -0.096094 -6.532990 
-0.348331 -0.092151 -6.539100 
-0.348331 -0.092151 -6.539100 
-0.499503 -0.069318 -6.604460 
-0.457285 -0.090224 -6.548710 
-0.456182 -0.089924 -6.548710 
-0.418058 -0.113579 -6.483240 
-0.340128 -0.098073 -6.530660 
-0.335448 -0.099177 -6.528060 
-0.503427 -0.069044 -6.607490 
-0.484574 -0.073167 -6.601020 
-0.459183 -0.083803 -6.567490 
-0.460322 -0.085239 -6.568580 
-0.360257 -0.090540 -6.559300 
-0.602689 -0.054486 -6.653330 
-0.527219 -0.065497 -6.624800 
-0.503937 -0.071710 -6.609050 
-0.463803 -0.079639 -6.585440 
-0.441716 -0.082164 -6.583450 
-0.439435 -0.082770 -6.580380 
-0.362503 -0.090932 -6.558770 
-0.349264 -0.098795 -6.539120 
-0.338502 -0.102460 -6.530320 
-0.600708 -0.056073 -6.654790 
-0.491861 -0.076993 -6.599170 
-0.462344 -0.083037 -6.585600 
-0.440215 -0.084360 -6.581730 
-0.438348 -0.083676 -6.582960 
-0.414031 -0.117472 -6.489180 
-0.413913 -0.120279 -6.485560 
-0.361110 -0.093709 -6.557640 
-0.359904 -0.093004 -6.559140 
-0.465804 -0.078743 -6.603540 
-0.460903 -0.083020 -6.594250 
-0.438104 -0.087181 -6.583950 
-0.439026 -0.085963 -6.582790 
-0.432519 -0.085099 -6.587400 
-0.429958 -0.085241 -6.588020 
-0.411776 -0.122855 -6.482420 
-0.357557 -0.102810 -6.541190 
-0.652038 -0.055688 -6.670490 
-0.607115 -0.060816 -6.657710 
-0.587090 -0.062582 -6.649710 
-0.468555 -0.081220 -6.601390 
-0.460492 -0.080661 -6.603300 
-0.431206 -0.086941 -6.588550 
-0.429079 -0.087114 -6.588490 
-0.411120 -0.124480 -6.483930 
-0.359132 -0.099939 -6.557900 
-0.517750 -0.077899 -6.616110 
-0.502147 -0.081167 -6.605680 
-0.491595 -0.085997 -6.594910 
-0.457026 -0.084956 -6.599780 
-0.457026 -0.084956 -6.599780 
-0.427509 -0.088274 -6.590190 
-0.425154 -0.088365 -6.589300 
-0.349262 -0.107916 -6.540600 
-0.577140 -0.067405 -6.652190 
-0.503434 -0.083569 -6.607000 
-0.455173 -0.087218 -6.600510 
-0.427700 -0.092267 -6.589570 
-0.428806 -0.090134 -6.590340 
-0.426531 -0.090335 -6.589430 
-0.650830 -0.062825 -6.672530 
-0.580820 -0.069842 -6.653600 
-0.503129 -0.087140 -6.606150 
-0.456459 -0.088455 -6.605080 
-0.451672 -0.093567 -6.587690 
-0.426581 -0.094325 -6.589150 
-0.393751 -0.131537 -6.478220 
-0.364234 -0.105691 -6.560690 
-0.349649 -0.113816 -6.537480 
-0.349649 -0.113816 -6.537480 
-0.511544 -0.085389 -6.615360 
-0.427873 -0.096343 -6.588740 
-0.364718 -0.107721 -6.561260 
-0.350107 -0.113737 -6.541720 
-0.340059 -0.117053 -6.531250 
-0.451007 -0.099817 -6.586150 
-0.428912 -0.097675 -6.590550 
-0.426617 -0.099085 -6.586110 
-0.424512 -0.097826 -6.589180 
-0.394175 -0.133831 -6.481640 
-0.366496 -0.108763 -6.562970 
-0.566422 -0.077218 -6.653250 
-0.512585 -0.090004 -6.614570 
-0.429972 -0.099689 -6.590410 
-0.420661 -0.103103 -6.585320 
-0.418791 -0.103179 -6.584440 
-0.407458 -0.136362 -6.483670 
-0.622112 -0.072411 -6.676920 
-0.561753 -0.082240 -6.645230 
-0.513270 -0.092457 -6.616420 
-0.422640 -0.103211 -6.586090 
-0.421056 -0.105183 -6.586500 
-0.419135 -0.105272 -6.585170 
-0.406168 -0.138337 -6.482880 
-0.347709 -0.121322 -6.535040 
-0.348616 -0.122169 -6.536980 
-0.339772 -0.124432 -6.529980 
-0.338115 -0.124756 -6.528660 
-0.647431 -0.074689 -6.672970 
-0.567513 -0.083176 -6.653650 
-0.565428 -0.082805 -6.653590 
-0.511801 -0.095306 -6.615110 
-0.419159 -0.107418 -6.586860 
-0.349749 -0.123775 -6.538450 
-0.340575 -0.126504 -6.530180 
-0.685624 -0.064886 -6.708060 
-0.514845 -0.096661 -6.617680 
-0.512728 -0.096539 -6.617420 
-0.480609 -0.104217 -6.600830 
-0.421217 -0.107563 -6.587460 
-0.406343 -0.141402 -6.485330 
-0.514722 -0.100730 -6.616790 
-0.442469 -0.111619 -6.582640 
-0.421323 -0.111594 -6.588340 
-0.361669 -0.119967 -6.560400 
-0.361885 -0.121413 -6.559340 
-0.456776 -0.106851 -6.601680 
-0.420944 -0.114009 -6.587020 
-0.418650 -0.114746 -6.583410 
-0.422239 -0.114205 -6.588820 
-0.422048 -0.115534 -6.588250 
-0.419858 -0.116086 -6.586220 
-0.415489 -0.116581 -6.582590 
-0.416342 -0.117249 -6.583950 
-0.360379 -0.124983 -6.558310 
-0.348028 -0.131916 -6.534360 
-0.457224 -0.111577 -6.602410 
-0.420961 -0.117580 -6.587560 
-0.418804 -0.117605 -6.587260 
-0.414453 -0.118389 -6.582930 
-0.359280 -0.130775 -6.550120 
-0.358763 -0.132962 -6.543030 
-0.578198 -0.094925 -6.661990 
-0.461098 -0.113952 -6.602570 
-0.417460 -0.120300 -6.582660 
-0.418440 -0.121988 -6.583960 
-0.415407 -0.120527 -6.582370 
-0.416322 -0.121931 -6.583770 
-0.413341 -0.120464 -6.582310 
-0.414290 -0.122216 -6.583290 
-0.356167 -0.134774 -6.544470 
-0.352079 -0.136101 -6.540250 
-0.561430 -0.102952 -6.647980 
-0.517944 -0.112485 -6.617740 
-0.510117 -0.112153 -6.617220 
-0.422036 -0.122406 -6.587990 
-0.417284 -0.124235 -6.583310 
-0.415234 -0.124231 -6.582970 
-0.413216 -0.124265 -6.582390 
-0.686206 -0.086854 -6.695410 
-0.505063 -0.117813 -6.606360 
-0.493377 -0.119071 -6.598530 
-0.421618 -0.124977 -6.586990 
-0.420111 -0.125613 -6.586520 
-0.418169 -0.126189 -6.584150 
-0.419144 -0.123813 -6.586100 
-0.416171 -0.126315 -6.583410 
-0.352973 -0.138631 -6.541710 
-0.345928 -0.142388 -6.531760 
-0.564135 -0.106590 -6.651620 
-0.554823 -0.110312 -6.633770 
-0.561792 -0.103972 -6.653570 
-0.458418 -0.122358 -6.603790 
-0.441057 -0.126973 -6.581920 
-0.419628 -0.127074 -6.585670 
-0.417094 -0.127943 -6.584270 
-0.415120 -0.128181 -6.583150 
-0.352978 -0.140427 -6.542270 
-0.667592 -0.096053 -6.686060 
-0.459515 -0.124209 -6.604410 
-0.460651 -0.121993 -6.605610 
-0.419937 -0.129389 -6.586050 
-0.421517 -0.127917 -6.587340 
-0.418038 -0.129783 -6.585250 
-0.416120 -0.129727 -6.584870 
-0.414134 -0.129992 -6.582950 
-0.399826 -0.157551 -6.486350 
-0.395754 -0.147370 -6.526270 
-0.361775 -0.138715 -6.559400 
-0.361323 -0.137013 -6.559280 
-0.351220 -0.144837 -6.538150 
-0.349127 -0.144646 -6.535260 
-0.556670 -0.113364 -6.638310 
-0.561781 -0.110649 -6.651090 
-0.482898 -0.125791 -6.600360 
-0.464554 -0.125148 -6.606860 
-0.419138 -0.131608 -6.585770 
-0.415080 -0.131866 -6.583660 
-0.416913 -0.131895 -6.584650 
-0.413066 -0.131852 -6.582600 
-0.397889 -0.160445 -6.485220 
-0.363874 -0.138994 -6.560780 
-0.623840 -0.102103 -6.684460 
-0.534880 -0.118443 -6.633920 
-0.507851 -0.124953 -6.612650 
-0.452723 -0.132023 -6.590050 
-0.415883 -0.133758 -6.584340 
-0.412667 -0.136127 -6.582020 
-0.414625 -0.135756 -6.583490 
-0.413925 -0.133716 -6.583980 
-0.410600 -0.135716 -6.582510 
-0.412228 -0.133957 -6.582140 
-0.408724 -0.135814 -6.581080 
-0.369673 -0.141526 -6.564790 
-0.370019 -0.139870 -6.566530 
-0.685549 -0.098199 -6.704910 
-0.557648 -0.118344 -6.640750 
-0.509454 -0.127636 -6.614360 
-0.503694 -0.129952 -6.603370 
-0.456936 -0.131813 -6.602570 
-0.411574 -0.138339 -6.582390 
-0.409596 -0.137718 -6.581800 
-0.561628 -0.117155 -6.651000 
-0.515693 -0.129139 -6.613840 
-0.511046 -0.128707 -6.615090 
-0.503635 -0.132680 -6.603160 
-0.466998 -0.132517 -6.608060 
-0.415413 -0.139922 -6.584070 
-0.414383 -0.138278 -6.583050 
-0.410481 -0.139625 -6.582480 
-0.366059 -0.146489 -6.562550 
-0.354320 -0.151556 -6.543790 
-0.352713 -0.150579 -6.542390 
-0.533230 -0.125783 -6.635600 
-0.459284 -0.133934 -6.604510 
-0.457854 -0.135707 -6.603860 
-0.444561 -0.141527 -6.584890 
-0.413360 -0.141436 -6.583840 
-0.411350 -0.141449 -6.583120 
-0.409461 -0.141548 -6.581910 
-0.367032 -0.147872 -6.564440 
-0.355261 -0.152629 -6.543490 
-0.670512 -0.112631 -6.684980 
-0.561723 -0.122610 -6.650840 
-0.533967 -0.126581 -6.637920 
-0.531250 -0.126851 -6.636210 
-0.529398 -0.126646 -6.636390 
-0.457468 -0.137331 -6.603020 
-0.416360 -0.143423 -6.584550 
-0.412447 -0.143563 -6.582670 
-0.414415 -0.143716 -6.582340 
-0.410348 -0.143411 -6.582410 
-0.408358 -0.143437 -6.581520 
-0.532115 -0.128917 -6.636470 
-0.530990 -0.130843 -6.636670 
-0.530121 -0.128780 -6.636400 
-0.528610 -0.130901 -6.635140 
-0.474401 -0.138791 -6.606340 
-0.474571 -0.138729 -6.606900 
-0.413373 -0.145184 -6.583500 
-0.411385 -0.145269 -6.582900 
-0.410392 -0.147128 -6.582590 
-0.409364 -0.145226 -6.582230 
-0.408282 -0.147253 -6.580880 
-0.381115 -0.152195 -6.562830 
-0.639433 -0.119996 -6.673350 
-0.590598 -0.124752 -6.664740 
-0.533461 -0.130816 -6.637440 
-0.529764 -0.133106 -6.636200 
-0.530667 -0.132069 -6.639300 
-0.412413 -0.147122 -6.582900 
-0.411297 -0.148884 -6.583150 
-0.409345 -0.149024 -6.581660 
-0.380671 -0.154181 -6.564570 
-0.640704 -0.122564 -6.676770 
-0.533725 -0.134822 -6.636130 
-0.531832 -0.134260 -6.637250 
-0.505077 -0.143441 -6.604630 
-0.424313 -0.147964 -6.590650 
-0.410021 -0.150861 -6.582210 
-0.407974 -0.150720 -6.581980 
-0.561072 -0.133108 -6.648220 
-0.429568 -0.150624 -6.590250 
-0.411504 -0.152977 -6.583360 
-0.397061 -0.166150 -6.529120 
-0.652701 -0.128674 -6.673630 
-0.650639 -0.128301 -6.671960 
-0.563718 -0.135225 -6.654250 
-0.533992 -0.138776 -6.637340 
-0.530274 -0.140448 -6.636770 
-0.528805 -0.138808 -6.635630 
-0.462462 -0.148345 -6.607230 
-0.417489 -0.156666 -6.579060 
-0.404540 -0.167366 -6.531260 
-0.398582 -0.167986 -6.533310 
-0.371822 -0.164125 -6.551920 
-0.370473 -0.165155 -6.547780 
-0.355478 -0.166378 -6.541110 
-0.355278 -0.166177 -6.541490 
-0.621274 -0.129380 -6.681080 
-0.585387 -0.138075 -6.647990 
-0.505846 -0.151289 -6.602980 
-0.465220 -0.150936 -6.606340 
-0.429492 -0.155797 -6.587940 
-0.404225 -0.169868 -6.532660 
-0.400954 -0.169884 -6.532780 
-0.370138 -0.166465 -6.548450 
-0.355412 -0.169672 -6.535580 
-0.570951 -0.138428 -6.655860 
-0.500243 -0.155931 -6.593240 
-0.496290 -0.156129 -6.593150 
-0.427780 -0.160142 -6.580440 
-0.401879 -0.171517 -6.534160 
-0.400091 -0.171379 -6.533850 
-0.369126 -0.168124 -6.549500 
-0.672934 -0.132158 -6.689840 
-0.533537 -0.145445 -6.635910 
-0.534269 -0.146046 -6.638170 
-0.431660 -0.159142 -6.588100 
-0.425775 -0.164772 -6.571340 
-0.421226 -0.163706 -6.573220 
-0.400621 -0.172908 -6.534970 
-0.398828 -0.172729 -6.534840 
-0.391022 -0.177473 -6.514220 
-0.372610 -0.170908 -6.547580 
-0.366572 -0.174519 -6.531850 
-0.586935 -0.142135 -6.662250 
-0.589540 -0.141637 -6.663360 
-0.425662 -0.167595 -6.567980 
-0.424633 -0.165640 -6.572900 
-0.397758 -0.176710 -6.531620 
-0.390958 -0.177815 -6.520000 
-0.370575 -0.175402 -6.537110 
-0.370938 -0.176847 -6.533700 
-0.368220 -0.176742 -6.533650 
-0.366484 -0.175785 -6.533500 
-0.672213 -0.136949 -6.688860 
-0.640799 -0.139730 -6.676570 
-0.598242 -0.145993 -6.657590 
-0.588779 -0.145013 -6.658900 
-0.532772 -0.151315 -6.634260 
-0.534447 -0.150766 -6.636620 
-0.504807 -0.162585 -6.593920 
-0.464567 -0.160907 -6.596350 
-0.421975 -0.168686 -6.573760 
-0.400336 -0.177505 -6.535250 
-0.388701 -0.173542 -6.551000 
-0.370854 -0.176432 -6.537240 
-0.566933 -0.149891 -6.652080 
-0.547763 -0.154797 -6.633740 
-0.543945 -0.154241 -6.628480 
-0.528710 -0.155149 -6.634720 
-0.463660 -0.165755 -6.591710 
-0.435061 -0.169439 -6.579160 
-0.401274 -0.179226 -6.535050 
-0.399550 -0.179103 -6.536030 
-0.635609 -0.146084 -6.674370 
-0.543608 -0.158862 -6.626680 
-0.530423 -0.157921 -6.627060 
-0.527431 -0.160285 -6.620680 
-0.466189 -0.166883 -6.595780 
-0.460053 -0.169250 -6.583530 
-0.439754 -0.170335 -6.579060 
-0.426765 -0.180974 -6.532330 
-0.400422 -0.180869 -6.535620 
-0.389562 -0.184432 -6.519110 
-0.381949 -0.179512 -6.544830 
-0.380271 -0.179773 -6.544520 
-0.600321 -0.151328 -6.657640 
-0.597505 -0.152083 -6.654860 
-0.530235 -0.161202 -6.622640 
-0.517551 -0.168199 -6.595560 
-0.472023 -0.169402 -6.593110 
-0.469744 -0.168586 -6.590980 
-0.465088 -0.169320 -6.590320 
-0.461685 -0.170445 -6.586290 
-0.434046 -0.174201 -6.571970 
-0.424520 -0.182920 -6.531720 
-0.422071 -0.185439 -6.521610 
-0.409650 -0.188246 -6.512210 
-0.410931 -0.186776 -6.519060 
-0.391091 -0.179051 -6.552690 
-0.565044 -0.159758 -6.638980 
-0.514247 -0.169681 -6.593280 
-0.438837 -0.180817 -6.553940 
-0.438864 -0.181238 -6.551290 
-0.428887 -0.181179 -6.547910 
-0.390277 -0.181817 -6.550170 
-0.384744 -0.191320 -6.506650 
-0.654027 -0.154138 -6.670170 
-0.528635 -0.169070 -6.605330 
-0.428587 -0.183742 -6.551560 
-0.419496 -0.189757 -6.524410 
-0.413186 -0.188466 -6.523220 
-0.391433 -0.183738 -6.554200 
-0.384760 -0.192678 -6.508720 
-0.362939 -0.186008 -6.541810 
-0.358090 -0.187171 -6.537990 
-0.668228 -0.155252 -6.670750 
-0.649979 -0.155859 -6.669100 
-0.538792 -0.170618 -6.610670 
-0.452927 -0.178707 -6.576900 
-0.435190 -0.181681 -6.571920 
-0.432099 -0.181120 -6.569960 
-0.369325 -0.186588 -6.545300 
-0.702282 -0.153456 -6.696180 
-0.435278 -0.183387 -6.573630 
-0.433686 -0.182816 -6.573200 
-0.432361 -0.183474 -6.571660 
-0.430438 -0.183734 -6.570310 
-0.417426 -0.187296 -6.554540 
-0.356115 -0.190247 -6.539890 
-0.702988 -0.156057 -6.695190 
-0.650731 -0.161950 -6.665390 
-0.616436 -0.166189 -6.649720 
-0.575768 -0.169782 -6.631430 
-0.573165 -0.170738 -6.628690 
-0.451868 -0.182167 -6.580010 
-0.385679 -0.195226 -6.522460 
-0.356269 -0.193506 -6.540340 
-0.356269 -0.193506 -6.540340 
-0.667204 -0.163089 -6.667330 
-0.664539 -0.163136 -6.667210 
-0.605795 -0.169340 -6.645890 
-0.525991 -0.177496 -6.612750 
-0.359780 -0.194298 -6.543840 
-0.357457 -0.194989 -6.541510 
-0.357457 -0.194989 -6.541510 
-0.688596 -0.162363 -6.680760 
-0.666065 -0.165094 -6.668260 
-0.653540 -0.168385 -6.661680 
-0.597623 -0.172732 -6.641800 
-0.566194 -0.174922 -6.627090 
-0.454286 -0.185070 -6.586370 
-0.358050 -0.196089 -6.541810 
-0.347600 -0.199929 -6.529160 
-0.662896 -0.167046 -6.669800 
-0.560726 -0.176616 -6.631210 
-0.417953 -0.191216 -6.569880 
-0.699867 -0.166224 -6.689240 
-0.657082 -0.170470 -6.666050 
-0.653883 -0.172059 -6.665340 
-0.650621 -0.171397 -6.664110 
-0.625290 -0.172882 -6.663800 
-0.621190 -0.175754 -6.661490 
-0.620233 -0.175288 -6.662370 
-0.619310 -0.175093 -6.657110 
-0.586062 -0.179291 -6.644760 
-0.520962 -0.186017 -6.617130 
-0.520025 -0.185248 -6.615830 
-0.416472 -0.197227 -6.563930 
-0.409885 -0.202007 -6.541150 
-0.519475 -0.187928 -6.615400 
-0.669530 -0.176322 -6.677030 
-0.500777 -0.192398 -6.599230 
-0.500777 -0.192398 -6.599230 
-0.425498 -0.200515 -6.566030 
-0.420469 -0.200299 -6.568020 
-0.673986 -0.178523 -6.682000 
-0.669183 -0.180188 -6.675520 
-0.517576 -0.191893 -6.615120 
-0.468727 -0.197599 -6.589380 
-0.541128 -0.193239 -6.624710 
-0.426001 -0.204841 -6.571190 
-0.412473 -0.205378 -6.566380 
-0.363181 -0.208932 -6.545380 
-0.412858 -0.206653 -6.566040 
-0.410651 -0.206823 -6.564660 
-0.409319 -0.208856 -6.557000 
-0.410630 -0.207006 -6.565600 
-0.354309 -0.213751 -6.535440 
-0.414923 -0.209820 -6.566300 
-0.414415 -0.209705 -6.566850 
-0.711322 -0.184958 -6.700850 
-0.533478 -0.199484 -6.622960 
-0.422853 -0.210973 -6.569350 
-0.414629 -0.212182 -6.566150 
-0.594984 -0.196435 -6.653450 
-0.411249 -0.217246 -6.542100 
-0.621841 -0.198028 -6.663420 
-0.412579 -0.218093 -6.567340 
-0.368975 -0.220291 -6.549620 
-0.411376 -0.219511 -6.566910 
-0.622115 -0.201933 -6.667020 
-0.589534 -0.205586 -6.648990 
-0.388743 -0.223411 -6.557800 
-0.516677 -0.215500 -6.614120 
-0.516699 -0.215487 -6.614210 
-0.434222 -0.220765 -6.579290 
-0.412841 -0.223739 -6.569420 
-0.410859 -0.223653 -6.570230 
-0.561496 -0.214056 -6.633850 
-0.503686 -0.218604 -6.602350 
-0.433018 -0.223084 -6.585770 
-0.427700 -0.224650 -6.574150 
-0.427532 -0.224367 -6.575330 
-0.427532 -0.224367 -6.575330 
-0.427618 -0.224365 -6.574710 
-0.418993 -0.225476 -6.571300 
-0.518381 -0.218673 -6.615440 
-0.513916 -0.220246 -6.606970 
-0.509237 -0.220772 -6.603980 
-0.440499 -0.223253 -6.587360 
-0.435393 -0.223729 -6.584300 
-0.433071 -0.223759 -6.583390 
-0.433205 -0.223608 -6.584430 
-0.583320 -0.216003 -6.642620 
-0.580161 -0.215879 -6.644400 
-0.377117 -0.232803 -6.553370 
-0.357419 -0.234515 -6.537280 
-0.357419 -0.234515 -6.537280 
-0.357421 -0.234490 -6.537460 
-0.599694 -0.215681 -6.657570 
-0.588312 -0.216011 -6.653880 
-0.451728 -0.226976 -6.600310 
-0.449281 -0.226730 -6.594050 
-0.443508 -0.226255 -6.599420 
-0.358177 -0.236328 -6.538500 
-0.607985 -0.217569 -6.662490 
-0.605597 -0.217349 -6.663060 
-0.598137 -0.217645 -6.657660 
-0.596941 -0.217341 -6.671770 
-0.561537 -0.222031 -6.638140 
-0.358061 -0.238308 -6.537930 
-0.604561 -0.218778 -6.664440 
-0.458299 -0.229429 -6.606450 
-0.456565 -0.229884 -6.605680 
-0.458299 -0.229429 -6.606450 
-0.377432 -0.237614 -6.552140 
-0.605624 -0.219581 -6.675890 
-0.518536 -0.230566 -6.616570 
-0.471593 -0.232040 -6.599980 
-0.465173 -0.231789 -6.600140 
-0.463535 -0.231582 -6.611640 
-0.463456 -0.231744 -6.611310 
-0.460998 -0.231411 -6.609720 
-0.460973 -0.231418 -6.609860 
-0.460862 -0.231496 -6.609820 
-0.460973 -0.231418 -6.609860 
-0.357803 -0.241076 -6.539930 
-0.356405 -0.242186 -6.537920 
-0.620223 -0.222184 -6.674770 
-0.528234 -0.232313 -6.616010 
-0.356329 -0.244231 -6.538710 
-0.679731 -0.222578 -6.688340 
-0.501013 -0.236357 -6.600310 
-0.470408 -0.234488 -6.614780 
-0.357650 -0.245217 -6.541150 
-0.504011 -0.238122 -6.601990 
-0.501893 -0.238192 -6.600760 
-0.499885 -0.238097 -6.600890 
-0.397362 -0.214547 -6.818600 
-0.358182 -0.248035 -6.542390 
-0.356824 -0.247034 -6.540360 
-0.504972 -0.239763 -6.603510 
-0.399016 -0.217873 -6.817240 
-0.363846 -0.248921 -6.544340 
-0.401469 -0.220442 -6.824680 
-0.620603 -0.227922 -6.745300 
-0.398459 -0.224006 -6.812380 
-0.398613 -0.223883 -6.812730 
-0.500356 -0.246536 -6.599950 
-0.401692 -0.227652 -6.810660 
-0.398847 -0.227256 -6.809200 
-0.399183 -0.227364 -6.809390 
-0.363234 -0.254084 -6.545260 
-0.650285 -0.239591 -6.670120 
-0.619868 -0.232402 -6.748170 
-0.520748 -0.247944 -6.609890 
-0.518897 -0.246128 -6.613470 
-0.499142 -0.248298 -6.600460 
-0.399325 -0.230404 -6.806310 
-0.398372 -0.229345 -6.810580 
-0.397065 -0.228423 -6.813710 
-0.352053 -0.258434 -6.533240 
-0.513328 -0.249445 -6.609110 
-0.506272 -0.250853 -6.603820 
-0.400533 -0.233420 -6.803900 
-0.414593 -0.230232 -6.865210 
-0.399598 -0.235965 -6.805960 
-0.401477 -0.236786 -6.794890 
-0.644919 -0.246962 -6.667620 
-0.517257 -0.254043 -6.609510 
-0.517883 -0.255117 -6.610260 
-0.491178 -0.257424 -6.603210 
-0.451333 -0.257412 -6.639260 
-0.400873 -0.242958 -6.805590 
-0.617862 -0.246342 -6.753230 
-0.471381 -0.260133 -6.621790 
-0.455428 -0.258265 -6.631580 
-0.450993 -0.258112 -6.633780 
-0.619227 -0.248360 -6.750760 
-0.453857 -0.262014 -6.633840 
-0.402481 -0.248964 -6.802240 
-0.521363 -0.262700 -6.615740 
-0.452816 -0.263872 -6.633310 
-0.643953 -0.260087 -6.672640 
-0.453040 -0.265639 -6.635800 
-0.453042 -0.268018 -6.633900 
-0.400657 -0.257709 -6.807410 
-0.400661 -0.257709 -6.807420 
-0.691833 -0.262286 -6.695460 
-0.454089 -0.270391 -6.634400 
-0.451992 -0.270274 -6.634110 
-0.364828 -0.277992 -6.541820 
-0.663301 -0.266725 -6.675300 
-0.617133 -0.266091 -6.688750 
-0.571805 -0.270441 -6.635250 
-0.550240 -0.270351 -6.641350 
-0.527488 -0.272700 -6.613210 
-0.438907 -0.272595 -6.628020 
-0.420516 -0.276574 -6.570890 
-0.379638 -0.280662 -6.523700 
-0.358477 -0.280091 -6.536820 
-0.678530 -0.268370 -6.684850 
-0.555334 -0.272079 -6.643950 
-0.538835 -0.273560 -6.626190 
-0.525306 -0.274350 -6.614730 
-0.518884 -0.273860 -6.611730 
-0.463022 -0.275537 -6.613810 
-0.447185 -0.276526 -6.595790 
-0.393513 -0.282047 -6.532400 
-0.621353 -0.269389 -6.700380 
-0.621059 -0.267963 -6.713810 
-0.620337 -0.268720 -6.712330 
-0.539514 -0.276708 -6.617110 
-0.466261 -0.277058 -6.619720 
-0.437493 -0.280605 -6.576560 
-0.425365 -0.281834 -6.558620 
-0.393519 -0.282523 -6.536480 
-0.393900 -0.283657 -6.535850 
-0.627632 -0.272697 -6.689470 
-0.622271 -0.270373 -6.718640 
-0.519396 -0.279304 -6.612210 
-0.584789 -0.276349 -6.667990 
-0.582691 -0.276287 -6.667360 
-0.423786 -0.285517 -6.547820 
-0.397834 -0.288356 -6.543340 
-0.377291 -0.287496 -6.545940 
-0.366260 -0.288134 -6.552680 
-0.384382 -0.290202 -6.525360 
-0.366577 -0.289989 -6.553940 
-0.635067 -0.279612 -6.719940 
-0.530951 -0.286017 -6.645020 
-0.437691 -0.287686 -6.602060 
-0.362315 -0.291198 -6.545470 
-0.532803 -0.288237 -6.643910 
-0.524894 -0.288574 -6.614550 
-0.532237 -0.287930 -6.643410 
-0.525008 -0.288457 -6.614830 
-0.462420 -0.288427 -6.616700 
-0.362519 -0.293825 -6.536520 
-0.460903 -0.291766 -6.612410 
-0.418363 -0.293352 -6.611640 
-0.388003 -0.294266 -6.553330 
-0.523696 -0.293063 -6.606290 
-0.523926 -0.291800 -6.610410 
-0.461125 -0.292994 -6.611440 
-0.461499 -0.293052 -6.612410 
-0.461770 -0.293296 -6.612530 
-0.428825 -0.294706 -6.599830 
-0.420768 -0.294802 -6.590730 
-0.385932 -0.296584 -6.554890 
-0.374669 -0.295116 -6.631860 
-0.364576 -0.298505 -6.540700 
-0.364592 -0.298502 -6.540770 
-0.364724 -0.296999 -6.538420 
-0.537448 -0.292315 -6.649910 
-0.527529 -0.293596 -6.620540 
-0.534060 -0.292929 -6.645970 
-0.517727 -0.296008 -6.602270 
-0.466222 -0.295543 -6.620180 
-0.463920 -0.295916 -6.615920 
-0.463375 -0.295879 -6.614000 
-0.460567 -0.295347 -6.613130 
-0.440655 -0.297374 -6.602690 
-0.430137 -0.297077 -6.598480 
-0.419902 -0.296685 -6.594850 
-0.417764 -0.296553 -6.597980 
-0.378011 -0.297086 -6.632190 
-0.372207 -0.297080 -6.627470 
-0.370155 -0.298634 -6.557700 
-0.363909 -0.300124 -6.540480 
-0.533925 -0.295063 -6.644410 
-0.528698 -0.295240 -6.629340 
-0.467028 -0.297196 -6.616930 
-0.467028 -0.297196 -6.616930 
-0.467407 -0.297249 -6.615420 
-0.463346 -0.297906 -6.616470 
-0.464595 -0.297035 -6.618580 
-0.420323 -0.298424 -6.598460 
-0.532428 -0.297754 -6.647640 
-0.530214 -0.298949 -6.642530 
-0.528695 -0.297251 -6.642130 
-0.528876 -0.297303 -6.643750 
-0.518114 -0.298560 -6.606400 
-0.382143 -0.299728 -6.631840 
-0.380153 -0.300745 -6.632390 
-0.374918 -0.300273 -6.630810 
-0.363968 -0.303194 -6.545460 
-0.627181 -0.297471 -6.691530 
-0.588016 -0.298374 -6.671380 
-0.551272 -0.298978 -6.659460 
-0.532377 -0.300632 -6.644000 
-0.528357 -0.300476 -6.641140 
-0.529886 -0.299394 -6.643530 
-0.381713 -0.302332 -6.631870 
-0.379847 -0.303607 -6.632850 
-0.373750 -0.302159 -6.630020 
-0.553462 -0.302214 -6.655900 
-0.551906 -0.300645 -6.656000 
-0.531228 -0.302079 -6.647000 
-0.567152 -0.303171 -6.660260 
-0.528863 -0.303639 -6.643810 
-0.455834 -0.306360 -6.607830 
-0.454490 -0.306684 -6.611280 
-0.362970 -0.307837 -6.544730 
-0.586946 -0.305778 -6.672460 
-0.569239 -0.305312 -6.662890 
-0.553135 -0.305307 -6.657660 
-0.550606 -0.306243 -6.655160 
-0.548520 -0.305601 -6.658180 
-0.454799 -0.308906 -6.612030 
-0.364413 -0.311131 -6.545310 
-0.553749 -0.307951 -6.656760 
-0.544813 -0.308238 -6.647960 
-0.547811 -0.308876 -6.653630 
-0.541601 -0.307680 -6.646760 
-0.468858 -0.309432 -6.621100 
-0.451784 -0.310878 -6.612320 
-0.364267 -0.312829 -6.543900 
-0.364430 -0.312810 -6.545550 
-0.364267 -0.312829 -6.543900 
-0.361290 -0.311564 -6.537650 
-0.361290 -0.311564 -6.537650 
-0.583206 -0.310252 -6.671660 
-0.585336 -0.311131 -6.670770 
-0.572554 -0.311883 -6.664770 
-0.570138 -0.311858 -6.662780 
-0.543904 -0.312741 -6.653600 
-0.453483 -0.314922 -6.612160 
-0.454558 -0.313094 -6.612870 
-0.363103 -0.316644 -6.544580 
-0.377165 -0.317076 -6.631010 
-0.361836 -0.319065 -6.538050 
-0.477067 -0.320168 -6.622580 
-0.435997 -0.321060 -6.580790 
-0.592149 -0.319934 -6.676210 
-0.589586 -0.319933 -6.675260 
-0.476244 -0.322142 -6.624030 
-0.476228 -0.322186 -6.619460 
-0.475932 -0.322168 -6.623780 
-0.476220 -0.322105 -6.623710 
-0.593458 -0.322144 -6.675190 
-0.547189 -0.322199 -6.624130 
-0.547223 -0.322088 -6.623980 
-0.631668 -0.323248 -6.693030 
-0.545036 -0.324172 -6.625480 
-0.413749 -0.326506 -6.540240 
-0.411630 -0.325391 -6.524860 
-0.364890 -0.326191 -6.546500 
-0.596775 -0.326483 -6.680290 
-0.543323 -0.326354 -6.634610 
-0.595826 -0.329060 -6.676380 
-0.414927 -0.329655 -6.548940 
-0.595635 -0.331842 -6.672940 
-0.471035 -0.332504 -6.609660 
-0.471235 -0.331569 -6.610310 
-0.471201 -0.331568 -6.610220 
-0.471201 -0.331568 -6.610220 
-0.467880 -0.331501 -6.607700 
-0.415890 -0.331364 -6.551340 
-0.598651 -0.333420 -6.677720 
-0.416045 -0.332526 -6.555720 
-0.658285 -0.341341 -6.670000 
-0.610614 -0.344982 -6.681980 
-0.406689 0.109909 -6.565210 
-0.406689 0.109909 -6.565210 
-0.521038 0.138400 -6.622680 
-0.436752 0.107045 -6.569730 
-0.404635 0.105026 -6.563030 
-0.419811 0.101496 -6.566640 
-0.391217 0.093027 -6.551190 
-0.629264 0.164371 -6.681570 
-0.429772 0.101265 -6.569150 
-0.511430 0.124995 -6.617930 
-0.507569 0.114800 -6.604930 
-0.524754 0.121805 -6.622430 
-0.555230 0.131812 -6.642190 
-0.513346 0.107897 -6.601920 
-0.484873 0.102360 -6.591620 
-0.654833 0.137211 -6.660980 
-0.532539 0.110283 -6.613410 
-0.527431 0.106280 -6.606950 
-0.661385 0.147228 -6.683120 
-0.591023 0.133103 -6.657690 
-0.564599 0.127326 -6.646530 
-0.565009 0.127404 -6.646220 
-0.530250 0.105621 -6.609110 
-0.519221 0.105049 -6.607240 
-0.617392 0.133728 -6.664960 
-0.553852 0.112884 -6.625680 
-0.596080 0.129210 -6.660150 
-0.592408 0.114680 -6.641880 
-0.580955 0.111028 -6.634740 
-0.574746 0.108096 -6.628060 
-0.613307 0.125952 -6.665850 
-0.606759 0.123788 -6.659780 
-0.600816 0.105906 -6.632510 
-0.586066 0.107777 -6.633720 
-0.585612 0.109761 -6.635330 
-0.642451 0.125081 -6.669790 
-0.636680 0.118655 -6.659610 
-0.631647 0.124880 -6.670520 
-0.623337 0.125541 -6.670720 
-0.615053 0.119903 -6.662120 
-0.611744 0.119203 -6.660040 
-0.603070 0.102556 -6.630330 
-0.522292 0.094060 -6.618880 
-0.505100 0.078882 -6.592720 
-0.592410 0.103181 -6.645150 
-0.546666 0.095873 -6.629480 
-0.353153 0.055397 -6.550480 
-0.688245 0.129141 -6.701350 
-0.412165 0.062533 -6.570180 
-0.338099 0.043044 -6.532870 
-0.579123 0.096604 -6.642590 
-0.519497 0.085282 -6.621140 
-0.679040 0.108058 -6.671110 
-0.498148 0.074906 -6.607090 
-0.398410 0.058504 -6.569680 
-0.395352 0.055299 -6.566370 
-0.682733 0.108605 -6.679380 
-0.395472 0.053901 -6.568500 
-0.354063 0.047696 -6.554520 
-0.666513 0.105525 -6.676020 
-0.395227 0.051618 -6.568940 
-0.355745 0.045677 -6.554860 
