-3.057250000000000245e-01 3.413569690314410821e-02 -6.524969999999999715e+00
-3.047779999999999934e-01 5.690328671684774520e-02 -6.526010000000000311e+00
-3.056320000000000148e-01 3.637158481515534447e-02 -6.525590000000000224e+00
-3.058060000000000223e-01 3.218831065719918172e-02 -6.526519999999999655e+00
-3.044789999999999996e-01 6.409178656299108212e-02 -6.526810000000000223e+00
-3.071400000000000241e-01 1.165421128694887898e-04 -6.526099999999999568e+00
-3.057090000000000085e-01 3.452036579123252125e-02 -6.525769999999999627e+00
-3.044839999999999769e-01 6.397157753546345305e-02 -6.526849999999999596e+00
-3.071030000000000149e-01 1.006088916573055769e-03 -6.525739999999999874e+00
-3.044009999999999772e-01 6.596704739241943116e-02 -6.526110000000000078e+00
-3.053489999999999815e-01 4.317541577321115653e-02 -6.524610000000000021e+00
-3.069479999999999986e-01 4.732568769925116214e-03 -6.525800000000000267e+00
-3.073600000000000221e-01 -5.172655098339085100e-03 -6.525450000000000195e+00
-3.058119999999999727e-01 3.204405982416780319e-02 -6.526799999999999713e+00
-3.058890000000000220e-01 3.019284080024320360e-02 -6.526320000000000121e+00
-3.064250000000000029e-01 1.730643304929913029e-02 -6.526370000000000005e+00
-3.075160000000000116e-01 -8.923176757195783182e-03 -6.525689999999999991e+00
-3.051389999999999936e-01 4.822419492936447227e-02 -6.526519999999999655e+00
-3.064209999999999989e-01 1.740260027132123355e-02 -6.526620000000000310e+00
-3.075459999999999861e-01 -9.644430922359781277e-03 -6.525640000000000107e+00
-3.067659999999999831e-01 9.108177371925485488e-03 -6.526239999999999597e+00
-3.065419999999999812e-01 1.449354180515616264e-02 -6.526570000000000427e+00
-3.071550000000000114e-01 -2.440849697125102580e-04 -6.526399999999999757e+00
-3.072819999999999996e-01 -3.297394268909847881e-03 -6.526530000000000165e+00
-3.084239999999999760e-01 -3.075313615618391339e-02 -6.525699999999999612e+00
-3.060550000000000215e-01 2.620190108633124737e-02 -6.526709999999999567e+00
-3.074600000000000111e-01 -7.576835648888113894e-03 -6.527120000000000033e+00
-3.078710000000000058e-01 -1.745801771164590122e-02 -6.526019999999999932e+00
-3.075089999999999768e-01 -8.754884118656214298e-03 -6.525459999999999816e+00
-3.064330000000000109e-01 1.711409860525492377e-02 -6.526360000000000383e+00
-3.068919999999999981e-01 6.078909878232785502e-03 -6.524560000000000137e+00
-3.088549999999999907e-01 -4.111515432905221701e-02 -6.526399999999999757e+00
-3.062579999999999747e-01 2.132141456871661234e-02 -6.527129999999999654e+00
-3.077360000000000095e-01 -1.421237396840435707e-02 -6.526500000000000412e+00
-3.075620000000000021e-01 -1.002909981044819432e-02 -6.527009999999999756e+00
-3.087190000000000212e-01 -3.784546878030603523e-02 -6.526519999999999655e+00
-3.066369999999999929e-01 1.220957028213387474e-02 -6.526980000000000004e+00
-3.078679999999999750e-01 -1.738589229512843559e-02 -6.527490000000000236e+00
-3.065709999999999824e-01 1.379632944549680218e-02 -6.527940000000000076e+00
-3.073069999999999968e-01 -3.898439406547105079e-03 -6.527969999999999828e+00
-3.080689999999999817e-01 -2.221829520173379535e-02 -6.528629999999999711e+00
-3.079129999999999923e-01 -1.846777354287620909e-02 -6.526849999999999596e+00
-3.101960000000000273e-01 -7.335521551192059064e-02 -6.511199999999999655e+00
-3.096050000000000191e-01 -5.914650845817348568e-02 -6.521860000000000213e+00
-3.078319999999999945e-01 -1.652038729693128261e-02 -6.522109999999999630e+00
-3.078319999999999945e-01 -1.652038729693128261e-02 -6.522109999999999630e+00
-3.080120000000000080e-01 -2.084791228792060025e-02 -6.523939999999999628e+00
-3.110990000000000144e-01 -9.506496588338197995e-02 -6.509590000000000209e+00
-3.118580000000000241e-01 -1.133126962620520928e-01 -6.508499999999999730e+00
-3.101140000000000008e-01 -7.138378746046925016e-02 -6.510040000000000049e+00
-3.105680000000000107e-01 -8.229876715996464753e-02 -6.509570000000000078e+00
-3.097400000000000153e-01 -6.239215220141502982e-02 -6.510449999999999626e+00
-3.107320000000000082e-01 -8.624162326286555214e-02 -6.512520000000000309e+00
-3.088960000000000039e-01 -4.210086835477788725e-02 -6.512710000000000221e+00
-3.107639999999999847e-01 -8.701096103904060186e-02 -6.514149999999999885e+00
-3.088759999999999839e-01 -4.162003224466737095e-02 -6.514649999999999608e+00
-3.107739999999999947e-01 -8.725137909409586001e-02 -6.519230000000000302e+00
-3.109569999999999834e-01 -9.165102950160086692e-02 -6.519949999999999690e+00
-3.085640000000000049e-01 -3.411898892695397478e-02 -6.519280000000000186e+00
-3.104740000000000277e-01 -8.003883744244788545e-02 -6.522170000000000023e+00
-3.104589999999999850e-01 -7.967821035986499822e-02 -6.520970000000000155e+00
-3.089290000000000092e-01 -4.289424793645935097e-02 -6.521130000000000315e+00
-3.102650000000000130e-01 -7.501410009179920735e-02 -6.522739999999999760e+00
-3.087940000000000129e-01 -3.964860419321780682e-02 -6.521160000000000068e+00
-3.109939999999999927e-01 -9.254057630530443390e-02 -6.520249999999999879e+00
-3.089740000000000264e-01 -4.397612918420712447e-02 -6.519759999999999778e+00
-3.098989999999999800e-01 -6.621479927678830535e-02 -6.519650000000000389e+00
-3.117699999999999916e-01 -1.111970173775675974e-01 -6.519759999999999778e+00
-3.092250000000000276e-01 -5.001062236608611045e-02 -6.519009999999999749e+00
-3.107829999999999759e-01 -8.746775534364470417e-02 -6.519929999999999559e+00
-3.097449999999999926e-01 -6.251236122894177072e-02 -6.520279999999999632e+00
-3.098179999999999823e-01 -6.426741303084249068e-02 -6.522020000000000373e+00
-3.091740000000000044e-01 -4.878449028530518206e-02 -6.520889999999999631e+00
-3.100729999999999875e-01 -7.039807343474446810e-02 -6.524490000000000123e+00
-3.094129999999999936e-01 -5.453048180111785825e-02 -6.525430000000000064e+00
-3.106760000000000077e-01 -8.489528215455788285e-02 -6.526620000000000310e+00
-3.095709999999999851e-01 -5.832908707098560797e-02 -6.526839999999999975e+00
-3.107530000000000014e-01 -8.674650117848070607e-02 -6.526729999999999698e+00
-3.096999999999999753e-01 -6.143047998119399722e-02 -6.526810000000000223e+00
-3.109029999999999849e-01 -9.035277200430424926e-02 -6.526749999999999829e+00
-3.097790000000000266e-01 -6.332978261612964843e-02 -6.526930000000000121e+00
-3.108859999999999957e-01 -8.994406131071119859e-02 -6.526670000000000194e+00
-3.120189999999999908e-01 -1.171834269484364199e-01 -6.526030000000000442e+00
-3.098290000000000211e-01 -6.453187289140416283e-02 -6.526629999999999932e+00
-3.109259999999999802e-01 -9.090573353093045483e-02 -6.526119999999999699e+00
-3.119779999999999776e-01 -1.161977129227107497e-01 -6.526449999999999640e+00
-3.099219999999999753e-01 -6.676776080341451092e-02 -6.527120000000000033e+00
-3.109279999999999822e-01 -9.095381714194150646e-02 -6.527059999999999640e+00
-3.098569999999999935e-01 -6.520504344555710929e-02 -6.526740000000000208e+00
-3.105200000000000182e-01 -8.114476049570118477e-02 -6.526939999999999742e+00
-3.123139999999999805e-01 -1.242757595725567654e-01 -6.526849999999999596e+00
-3.125040000000000040e-01 -1.288437026186013412e-01 -6.526510000000000034e+00
-3.106800000000000117e-01 -8.499144937657998611e-02 -6.527070000000000149e+00
-3.101169999999999760e-01 -7.145591287698582761e-02 -6.526600000000000179e+00
-3.112969999999999904e-01 -9.982524337346898591e-02 -6.526620000000000310e+00
-3.104290000000000105e-01 -7.895695619470100013e-02 -6.526139999999999830e+00
-3.122900000000000120e-01 -1.236987562404259222e-01 -6.526950000000000252e+00
-3.104040000000000132e-01 -7.835591105706285475e-02 -6.525590000000000224e+00
-3.123650000000000038e-01 -1.255018916533376938e-01 -6.526480000000000281e+00
-3.117889999999999828e-01 -1.116538116821725879e-01 -6.524980000000000224e+00
-3.103710000000000080e-01 -7.756253147538227921e-02 -6.527350000000000207e+00
-3.113460000000000116e-01 -1.010032918432388627e-01 -6.527020000000000266e+00
-3.129040000000000155e-01 -1.384604248207992327e-01 -6.525730000000000253e+00
-3.114140000000000241e-01 -1.026381346176128417e-01 -6.527319999999999567e+00
-3.133000000000000229e-01 -1.479809798009750210e-01 -6.526209999999999845e+00
-3.122260000000000035e-01 -1.221600806880740464e-01 -6.526760000000000339e+00
-3.112079999999999846e-01 -9.768552268347985290e-02 -6.526790000000000092e+00
-3.132989999999999942e-01 -1.479569379954686070e-01 -6.527020000000000266e+00
-3.113299999999999956e-01 -1.006186229551504496e-01 -6.526370000000000005e+00
-3.123799999999999910e-01 -1.258625187359196929e-01 -6.526970000000000383e+00
-3.134069999999999911e-01 -1.505534529900618423e-01 -6.526550000000000296e+00
-3.113060000000000271e-01 -1.000416196230196064e-01 -6.527420000000000222e+00
-3.123690000000000078e-01 -1.255980588753597971e-01 -6.527269999999999683e+00
-3.134419999999999984e-01 -1.513949161827543577e-01 -6.526720000000000077e+00
-3.113190000000000124e-01 -1.003541630945905538e-01 -6.526099999999999568e+00
-3.124460000000000015e-01 -1.274492778992826203e-01 -6.527140000000000164e+00
-3.135319999999999774e-01 -1.535586786782490165e-01 -6.526740000000000208e+00
-3.114480000000000026e-01 -1.034555560047989431e-01 -6.526309999999999611e+00
-3.125800000000000245e-01 -1.306708798370195268e-01 -6.527660000000000018e+00
-3.136740000000000084e-01 -1.569726150600292414e-01 -6.526670000000000194e+00
-3.116510000000000113e-01 -1.083360425224144663e-01 -6.526849999999999596e+00
-3.140229999999999966e-01 -1.653632051814470927e-01 -6.526699999999999946e+00
-3.123040000000000260e-01 -1.240353415175023954e-01 -6.527269999999999683e+00
-3.118969999999999798e-01 -1.142503266767658232e-01 -6.527000000000000135e+00
-3.129109999999999947e-01 -1.386287174593370253e-01 -6.527529999999999610e+00
-3.120120000000000116e-01 -1.170151343098977392e-01 -6.527180000000000426e+00
-3.130229999999999957e-01 -1.413213996759523639e-01 -6.527300000000000324e+00
-3.140379999999999838e-01 -1.657238322640290917e-01 -6.526519999999999655e+00
-3.119689999999999963e-01 -1.159813366731610174e-01 -6.525890000000000413e+00
-3.143710000000000115e-01 -1.737297534973594182e-01 -6.508820000000000050e+00
-3.161869999999999958e-01 -2.173896722953365668e-01 -6.508980000000000210e+00
-3.153360000000000052e-01 -1.969300958101607435e-01 -6.509389999999999787e+00
-3.147630000000000150e-01 -1.831541412555131032e-01 -6.510119999999999685e+00
-3.157710000000000239e-01 -2.073882812050511504e-01 -6.510480000000000267e+00
-3.147650000000000170e-01 -1.832022248665241548e-01 -6.510810000000000208e+00
-3.153039999999999732e-01 -1.961607580339848056e-01 -6.517430000000000057e+00
-3.149540000000000117e-01 -1.877461261070623166e-01 -6.520270000000000010e+00
-3.159680000000000266e-01 -2.121245168896335187e-01 -6.520520000000000316e+00
-3.154009999999999869e-01 -1.984928131680172569e-01 -6.521119999999999806e+00
-3.150180000000000202e-01 -1.892848016594141924e-01 -6.519860000000000433e+00
-3.144910000000000205e-01 -1.766147701580189633e-01 -6.520220000000000127e+00
-3.152650000000000174e-01 -1.952231276192710752e-01 -6.521110000000000184e+00
-3.139739999999999753e-01 -1.641851567116772159e-01 -6.519449999999999967e+00
-3.150149999999999895e-01 -1.892126762428967268e-01 -6.519180000000000419e+00
-3.160479999999999956e-01 -2.140478613300729194e-01 -6.519210000000000171e+00
-3.148219999999999907e-01 -1.845726077803364618e-01 -6.518460000000000143e+00
-3.158460000000000156e-01 -2.091914166179629220e-01 -6.518089999999999939e+00
-3.166809999999999903e-01 -2.292663242150503322e-01 -6.518329999999999735e+00
-3.089100000000000179e-01 -4.243745363185524866e-02 -6.516580000000000261e+00
-3.134230000000000071e-01 -1.509381218781502554e-01 -6.523760000000000225e+00
-3.129799999999999804e-01 -1.402876020392156420e-01 -6.524499999999999744e+00
-3.156619999999999981e-01 -2.047677244049515011e-01 -6.515930000000000000e+00
-3.147269999999999790e-01 -1.822886362573141739e-01 -6.522999999999999687e+00
-3.059740000000000237e-01 2.814928733227617386e-02 -6.529490000000000016e+00
-3.090040000000000009e-01 -4.469738334937112256e-02 -6.520649999999999835e+00
