ply
format ascii 1.0
element vertex 648
property float x
property float y
property float z
property float nx
property float ny
property float nz
property uchar red
property uchar green
property uchar blue
property uchar alpha
end_header
-0.233749 -0.150396 -6.520544 -0.317554 0.010552 0.948181 62 63 64 255
-0.230976 -0.150159 -6.520660 0.245365 -0.054022 0.967924 136 137 135 255
-0.229014 -0.150022 -6.520766 0.004212 -0.035360 0.999366 172 169 163 255
-0.226985 -0.149947 -6.520897 0.063311 0.006617 0.997972 142 135 129 255
-0.224712 -0.151062 -6.521152 -0.293352 -0.037390 0.955273 147 147 146 255
-0.222329 -0.151449 -6.521385 -0.618788 -0.029810 0.784992 139 147 153 255
-0.220257 -0.151382 -6.521580 0.211370 -0.074168 0.974588 152 159 163 255
-0.218077 -0.151636 -6.521828 0.008476 -0.001430 0.999963 174 176 177 255
-0.216091 -0.151425 -6.522041 -0.076677 0.020593 0.996843 192 191 187 255
-0.214177 -0.150996 -6.522250 -0.624450 0.000121 0.781064 206 204 197 255
-0.214270 -0.151224 -6.522253 -0.032232 -0.001605 0.999479 203 201 194 255
-0.212278 -0.151147 -6.522510 0.125455 -0.030804 0.991621 215 213 204 255
-0.207102 -0.150361 -6.523223 0.380558 -0.074063 0.921786 190 184 174 255
-0.204929 -0.150254 -6.523572 0.179183 -0.072908 0.981111 171 160 148 255
-0.202687 -0.149978 -6.523945 0.214580 -0.084200 0.973070 157 146 134 255
-0.202806 -0.150261 -6.523941 0.152892 -0.075337 0.985367 158 147 135 255
-0.200670 -0.150174 -6.524326 -0.617718 0.182848 0.764847 169 166 161 255
-0.198138 -0.151503 -6.524891 -0.690116 -0.176482 0.701851 149 152 153 255
-0.195888 -0.151111 -6.525325 0.225213 -0.008472 0.974273 156 159 162 255
-0.193263 -0.151557 -6.525910 0.088444 0.036199 0.995423 175 177 178 255
-0.191027 -0.152053 -6.526438 0.217538 0.019521 0.975857 194 193 190 255
-0.190208 -0.152106 -6.526629 0.483123 -0.027631 0.875117 199 198 193 255
-0.183894 -0.150983 -6.528126 0.609132 -0.076098 0.789409 203 196 185 255
-0.182887 -0.150497 -6.528365 0.515357 -0.084646 0.852785 196 187 176 255
-0.180898 -0.149454 -6.528849 0.520735 -0.068162 0.850993 170 160 146 255
-0.180652 -0.154765 -6.529179 -0.927939 -0.007918 0.372648 222 217 206 255
-0.173134 -0.149150 -6.531096 -0.903377 0.119154 0.411962 231 215 178 255
-0.161768 -0.147989 -6.534835 -0.658462 -0.145181 0.738478 106 103 103 255
-0.159191 -0.147644 -6.535760 0.093252 -0.061745 0.993726 102 100 98 255
-0.159677 -0.148624 -6.535621 -0.022915 -0.139263 0.989990 103 101 100 255
-0.157600 -0.148466 -6.536387 0.494388 -0.067650 0.866605 125 124 118 255
-0.155302 -0.148455 -6.537264 0.467049 -0.057323 0.882371 198 190 178 255
-0.153007 -0.148453 -6.538164 0.490987 -0.058885 0.869174 175 160 145 255
-0.135141 -0.145252 -6.545859 -0.284129 0.047880 0.957590 94 88 87 255
-0.133776 -0.143959 -6.546475 -0.150645 -0.148835 0.977320 83 79 79 255
-0.131927 -0.144456 -6.547390 -0.848002 -0.031777 0.529039 109 109 106 255
-0.128415 -0.146615 -6.549200 0.449407 -0.089523 0.888830 197 192 181 255
-0.126045 -0.146640 -6.550411 0.438650 -0.081182 0.894984 178 166 155 255
-0.123686 -0.146739 -6.551642 0.255365 0.023242 0.966565 184 178 169 255
-0.122611 -0.145384 -6.552178 0.158924 -0.049734 0.986037 181 179 175 255
-0.120273 -0.145377 -6.553432 -0.002290 0.052566 0.998615 164 166 167 255
-0.117812 -0.145293 -6.554777 -0.030155 -0.004520 0.999535 181 182 179 255
-0.115598 -0.144957 -6.556004 -0.096169 0.004815 0.995353 194 192 185 255
-0.113257 -0.144342 -6.557321 0.239852 -0.036887 0.970108 207 204 196 255
-0.107322 -0.142772 -6.560771 0.581165 -0.064296 0.811242 192 178 162 255
-0.103260 -0.143505 -6.563254 0.507770 -0.058156 0.859527 193 186 175 255
-0.100851 -0.143329 -6.564751 0.102911 -0.025750 0.994357 174 172 167 255
-0.099147 -0.142457 -6.565814 0.556336 -0.003260 0.830951 178 176 170 255
-0.097035 -0.141434 -6.567153 0.549574 -0.044216 0.834274 191 189 182 255
-0.095511 -0.143530 -6.568168 0.550456 -0.022961 0.834548 198 195 187 255
-0.087875 -0.140168 -6.573237 0.241250 0.011673 0.970393 199 191 178 255
-0.082760 -0.139404 -6.576798 0.173840 0.034238 0.984179 102 95 90 255
-0.073130 -0.134550 -6.583812 0.539357 -0.021401 0.841805 125 121 112 255
-0.062102 -0.132582 -6.592388 0.492905 -0.063462 0.867766 103 97 90 255
-0.062134 -0.132457 -6.592362 0.485041 0.076110 0.871173 100 94 88 255
-0.055134 -0.129056 -6.598099 0.188205 -0.077014 0.979106 121 117 107 255
-0.055026 -0.129529 -6.598187 0.125667 -0.104859 0.986515 125 121 111 255
-0.312446 -0.144871 -6.530158 0.402156 -0.083611 0.911746 144 139 131 255
-0.310350 -0.145360 -6.529594 0.127973 -0.052398 0.990393 126 119 112 255
-0.307280 -0.145442 -6.528731 -0.741663 -0.014878 0.670608 134 132 132 255
-0.305874 -0.146280 -6.528437 -0.734372 0.001638 0.678745 139 142 147 255
-0.304232 -0.146671 -6.528039 -0.455955 -0.018219 0.889816 131 134 139 255
-0.302960 -0.147317 -6.527776 -0.519128 0.008224 0.854657 145 150 156 255
-0.299120 -0.147685 -6.526852 -0.426489 0.064301 0.902204 176 177 178 255
-0.299234 -0.148491 -6.526965 0.025941 0.079009 0.996536 175 177 178 255
-0.297330 -0.147287 -6.526382 -0.135750 -0.014860 0.990632 188 187 182 255
-0.297171 -0.149744 -6.526603 -0.164923 -0.015303 0.986188 187 185 181 255
-0.295078 -0.149674 -6.526113 0.583061 0.044155 0.811228 202 197 188 255
-0.290332 -0.147672 -6.524886 0.356330 -0.072818 0.931518 202 195 182 255
-0.288243 -0.147811 -6.524483 -0.016524 0.009029 0.999823 182 174 161 255
-0.288413 -0.148070 -6.524542 0.232292 -0.077249 0.969573 185 178 164 255
-0.286271 -0.147803 -6.524106 -0.239169 0.000020 0.970978 156 146 134 255
-0.283334 -0.148406 -6.523636 0.464605 -0.066265 0.883035 173 167 158 255
-0.282250 -0.146354 -6.523248 0.263959 -0.066482 0.962240 179 173 162 255
-0.281204 -0.148103 -6.523246 0.205523 -0.035672 0.978002 170 162 149 255
-0.279036 -0.147578 -6.522849 0.268067 -0.104077 0.957762 126 114 100 255
-0.277838 -0.145973 -6.522511 0.087325 -0.047990 0.995023 120 109 99 255
-0.276994 -0.147331 -6.522518 0.171291 -0.045844 0.984153 109 99 89 255
-0.276958 -0.147548 -6.522533 0.152669 -0.038396 0.987531 108 98 87 255
-0.274203 -0.145622 -6.521966 -0.520411 -0.083257 0.849847 32 31 27 255
-0.272370 -0.145977 -6.521763 -0.085653 -0.095567 0.991731 32 33 32 255
-0.267190 -0.147677 -6.521331 0.048987 0.009880 0.998751 26 27 26 255
-0.263833 -0.150249 -6.521241 0.099394 -0.033777 0.994475 51 53 55 255
-0.257912 -0.150094 -6.520774 0.154840 -0.053815 0.986473 160 154 145 255
-0.255996 -0.149798 -6.520636 0.471405 -0.073842 0.878820 152 146 138 255
-0.252098 -0.148616 -6.520356 0.489492 -0.021797 0.871735 165 157 147 255
-0.250256 -0.148402 -6.520277 0.482147 -0.039919 0.875180 129 119 109 255
-0.248162 -0.148359 -6.520222 -0.154676 -0.001832 0.987964 115 106 97 255
-0.236456 -0.152521 -6.520607 -0.155148 0.007139 0.987865 50 50 48 255
-0.233912 -0.152028 -6.520658 0.516184 -0.066520 0.853891 62 63 63 255
-0.233407 -0.152278 -6.520699 -0.121467 -0.033795 0.992020 67 69 70 255
-0.231904 -0.151967 -6.520745 0.150159 -0.092886 0.984289 97 98 97 255
-0.229981 -0.151828 -6.520838 -0.129653 -0.059437 0.989776 170 169 165 255
-0.228012 -0.151720 -6.520954 -0.034777 -0.015019 0.999282 152 146 140 255
-0.225930 -0.151776 -6.521106 0.004973 0.018762 0.999812 147 142 137 255
-0.221461 -0.152563 -6.521543 -0.559107 0.060045 0.826919 145 153 159 255
-0.222928 -0.153452 -6.521470 -0.592170 -0.075922 0.802228 140 147 153 255
-0.221383 -0.154495 -6.521682 -0.522549 -0.023481 0.852286 147 154 160 255
-0.219097 -0.153504 -6.521843 -0.165073 -0.043307 0.985330 164 168 171 255
-0.219011 -0.153525 -6.521854 -0.557058 0.010722 0.830404 168 172 174 255
-0.217077 -0.153349 -6.522054 -0.196659 0.018953 0.980289 184 184 182 255
-0.215154 -0.153002 -6.522259 -0.666844 -0.032155 0.744503 201 199 193 255
-0.211379 -0.153032 -6.522754 0.728663 -0.030813 0.684179 205 201 191 255
-0.208410 -0.152773 -6.523170 0.613324 -0.072725 0.786476 194 189 178 255
-0.206053 -0.152201 -6.523506 0.308710 -0.024902 0.950830 184 175 164 255
-0.203907 -0.152156 -6.523863 0.139554 -0.011521 0.990148 163 151 139 255
-0.200557 -0.151895 -6.524448 -0.044561 0.002547 0.999003 162 160 155 255
-0.199218 -0.153136 -6.524775 -0.594641 0.049926 0.802440 146 147 148 255
-0.197066 -0.153075 -6.525196 0.095366 0.014130 0.995342 148 151 154 255
-0.195031 -0.153168 -6.525620 -0.029377 0.018864 0.999390 163 166 169 255
-0.192365 -0.153557 -6.526218 0.215285 0.027323 0.976169 184 185 184 255
-0.186890 -0.154221 -6.527534 0.739712 -0.030762 0.672220 209 205 196 255
-0.185585 -0.152507 -6.527771 0.666024 -0.019826 0.745667 208 204 195 255
-0.181929 -0.152629 -6.528728 0.470706 -0.046228 0.881078 174 164 153 255
-0.179750 -0.152609 -6.529322 0.502334 -0.059726 0.862609 179 170 156 255
-0.173633 -0.152698 -6.531107 0.647812 0.082264 0.757345 223 208 166 255
-0.160337 -0.150327 -6.535449 0.562924 -0.154074 0.812021 103 99 98 255
-0.159732 -0.151306 -6.535709 0.161517 -0.018169 0.986703 101 99 97 255
-0.158690 -0.151913 -6.536117 0.601241 -0.042973 0.797912 102 100 96 255
-0.156505 -0.150683 -6.536889 0.545558 -0.060905 0.835857 175 171 162 255
-0.154215 -0.150698 -6.537772 0.495900 -0.077218 0.864940 183 170 157 255
-0.146447 -0.150811 -6.540942 0.055661 0.239761 0.969235 141 128 112 255
-0.136311 -0.147247 -6.545364 -0.175177 0.057607 0.982850 87 83 78 255
-0.132748 -0.145883 -6.547030 -0.383451 -0.042502 0.922583 89 87 84 255
-0.132080 -0.148966 -6.547442 -0.045918 -0.012294 0.998869 98 97 95 255
-0.130516 -0.146517 -6.548145 -0.882287 -0.055483 0.467430 125 127 127 255
-0.129906 -0.148949 -6.548514 -0.257681 0.016743 0.966085 141 140 133 255
-0.127273 -0.148866 -6.549838 0.431001 -0.060210 0.900341 189 181 170 255
-0.124962 -0.149044 -6.551031 0.515951 -0.024760 0.856260 169 158 145 255
-0.121110 -0.147431 -6.553028 -0.093441 0.084342 0.992046 163 165 166 255
-0.116671 -0.147383 -6.555454 -0.027937 -0.003832 0.999602 190 190 185 255
-0.110237 -0.148060 -6.559138 -0.147862 0.012327 0.988931 218 213 203 255
-0.107474 -0.145908 -6.560734 0.566642 -0.029837 0.823424 201 188 172 255
-0.104982 -0.144469 -6.562213 0.287750 -0.053822 0.956192 191 179 161 255
-0.102050 -0.145543 -6.564034 0.370863 -0.009469 0.928639 176 172 165 255
-0.099596 -0.145637 -6.565574 0.358563 -0.006756 0.933481 180 179 174 255
-0.097514 -0.144428 -6.566884 0.553217 -0.019552 0.832808 189 187 179 255
-0.086745 -0.141982 -6.574030 -0.012096 -0.006338 0.999907 166 161 155 255
-0.089048 -0.142481 -6.572457 0.657969 -0.070804 0.749709 192 180 163 255
-0.083942 -0.142058 -6.575983 0.284954 0.072873 0.955767 88 83 80 255
-0.073678 -0.136919 -6.583409 0.471422 0.060793 0.879810 124 120 111 255
-0.071415 -0.135620 -6.585114 0.656266 -0.032557 0.753827 171 165 149 255
-0.053745 -0.131754 -6.599251 0.295545 -0.093244 0.950768 159 155 143 255
-0.311448 -0.147205 -6.530124 0.310810 0.022159 0.950214 139 134 126 255
-0.309409 -0.146757 -6.529479 -0.609409 -0.022751 0.792529 115 107 101 255
-0.307273 -0.147470 -6.528953 -0.700533 0.061507 0.710964 137 135 134 255
-0.306078 -0.148722 -6.528760 -0.723529 -0.004491 0.690280 136 138 141 255
-0.304686 -0.147539 -6.528255 -0.722509 -0.008373 0.691311 141 148 155 255
-0.304290 -0.148657 -6.528271 -0.442955 -0.002313 0.896541 132 136 140 255
-0.303381 -0.149790 -6.528153 -0.717451 0.050356 0.694787 156 164 171 255
-0.301727 -0.149802 -6.527727 -0.738271 0.021947 0.674147 170 178 186 255
-0.299634 -0.150136 -6.527237 -0.142095 0.018284 0.989684 170 171 173 255
-0.298154 -0.151211 -6.526991 0.122658 0.102937 0.987096 182 181 178 255
-0.299360 -0.150086 -6.527165 -0.698069 -0.072105 0.712390 186 188 189 255
-0.296254 -0.150874 -6.526507 0.047185 0.201778 0.978294 196 193 186 255
-0.293606 -0.150584 -6.525879 0.610115 0.020169 0.792056 208 202 190 255
-0.291351 -0.149628 -6.525297 0.657054 -0.041865 0.752680 206 199 184 255
-0.291377 -0.149594 -6.525299 0.645030 -0.018115 0.763942 207 200 185 255
-0.289284 -0.149638 -6.524873 0.324881 0.010859 0.945692 193 186 172 255
-0.287266 -0.149546 -6.524468 -0.119041 -0.042077 0.991997 170 161 148 255
-0.285345 -0.149607 -6.524114 0.187968 0.015170 0.982058 156 147 137 255
-0.282302 -0.150247 -6.523639 0.700788 -0.062980 0.710584 178 171 158 255
-0.278059 -0.149159 -6.522851 0.188297 -0.072036 0.979467 122 112 102 255
-0.278022 -0.149367 -6.522866 0.221775 -0.047183 0.973956 124 113 103 255
-0.273136 -0.148127 -6.522063 -0.382998 -0.015649 0.923617 37 37 34 255
-0.271199 -0.147920 -6.521802 -0.205675 -0.217050 0.954247 32 33 32 255
-0.268590 -0.149244 -6.521624 0.130612 0.037780 0.990714 30 31 30 255
-0.266992 -0.150652 -6.521581 -0.518232 -0.040919 0.854260 45 45 43 255
-0.267820 -0.150558 -6.521660 -0.135228 -0.065546 0.988644 54 54 53 255
-0.265796 -0.151488 -6.521536 -0.388300 -0.014718 0.921415 54 55 55 255
-0.262669 -0.152044 -6.521298 0.167265 -0.023732 0.985626 70 72 74 255
-0.260753 -0.151967 -6.521136 -0.063002 -0.045429 0.996979 139 140 136 255
-0.258744 -0.151967 -6.520991 -0.068361 -0.027899 0.997271 166 161 153 255
-0.257119 -0.151655 -6.520859 0.295607 -0.055428 0.953700 160 154 145 255
-0.254865 -0.151785 -6.520745 0.662199 -0.044862 0.747984 162 158 151 255
-0.251311 -0.150532 -6.520488 0.610337 -0.047232 0.790732 138 129 116 255
-0.249213 -0.150533 -6.520424 0.274121 -0.028831 0.961263 118 108 98 255
-0.247002 -0.150595 -6.520384 -0.203053 -0.031631 0.978657 99 92 84 255
-0.245443 -0.150115 -6.520326 -0.215854 -0.183044 0.959115 72 68 64 255
-0.234949 -0.154644 -6.520814 0.014532 0.003032 0.999890 61 62 61 255
-0.232938 -0.153799 -6.520831 0.250886 -0.041453 0.967129 74 76 76 255
-0.230997 -0.153500 -6.520904 -0.189102 -0.017090 0.981809 141 142 139 255
-0.228991 -0.153563 -6.521023 -0.076410 -0.019881 0.996878 167 164 158 255
-0.226952 -0.153543 -6.521156 0.003971 -0.078472 0.996908 135 129 123 255
-0.224980 -0.153703 -6.521315 -0.250249 -0.097785 0.963231 148 148 146 255
-0.223916 -0.155453 -6.521523 -0.566302 -0.143700 0.811574 141 145 149 255
-0.222850 -0.155387 -6.521609 -0.596379 -0.046067 0.801380 140 147 153 255
-0.220023 -0.155373 -6.521874 -0.519590 0.052353 0.852810 159 164 168 255
-0.217923 -0.155540 -6.522105 -0.130571 0.058648 0.989703 177 179 179 255
-0.217968 -0.155573 -6.522102 -0.645766 0.056387 0.761451 182 184 183 255
-0.215881 -0.155666 -6.522345 -0.282016 0.085583 0.955585 193 192 188 255
-0.214244 -0.154671 -6.522480 -0.382869 0.056272 0.922087 203 201 193 255
-0.212307 -0.154551 -6.522724 0.082330 -0.038899 0.995846 214 211 203 255
-0.209940 -0.155199 -6.523095 0.574974 -0.064164 0.815652 207 203 193 255
-0.207764 -0.154343 -6.523366 0.607744 -0.112947 0.786060 191 186 175 255
-0.207302 -0.154649 -6.523457 0.366139 -0.077813 0.927301 192 186 177 255
-0.204978 -0.154193 -6.523804 0.197354 0.056362 0.978711 167 157 146 255
-0.202771 -0.154207 -6.524183 0.116093 0.000439 0.993238 160 151 139 255
-0.200835 -0.154438 -6.524546 0.113075 -0.025869 0.993250 164 161 156 255
-0.195974 -0.154921 -6.525522 0.007611 -0.034803 0.999365 156 160 163 255
-0.193808 -0.155215 -6.525994 0.172423 -0.009390 0.984978 174 176 177 255
-0.191621 -0.155198 -6.526474 0.243790 -0.021362 0.969593 192 192 189 255
-0.189097 -0.155487 -6.527070 0.722920 -0.020062 0.690641 202 200 191 255
-0.156783 -0.153367 -6.536886 0.447248 -0.020361 0.894178 173 170 161 255
-0.133678 -0.147631 -6.546630 0.011499 -0.082533 0.996522 84 80 78 255
-0.135104 -0.149022 -6.545988 -0.136328 -0.107819 0.984779 95 90 88 255
-0.132615 -0.149538 -6.547198 -0.429252 -0.032409 0.902603 102 100 99 255
-0.131037 -0.150989 -6.548008 -0.105645 -0.097656 0.989597 113 112 109 255
-0.128494 -0.151146 -6.549278 0.354541 -0.022896 0.934760 193 188 178 255
-0.126060 -0.151042 -6.550512 0.438554 -0.077118 0.895390 170 158 146 255
-0.122184 -0.149406 -6.552499 -0.004155 -0.056318 0.998404 168 168 167 255
-0.120026 -0.149252 -6.553653 -0.270884 -0.001910 0.962610 167 170 169 255
-0.117680 -0.149055 -6.554930 0.055803 -0.036008 0.997792 184 185 181 255
-0.115338 -0.148924 -6.556231 0.078574 0.019017 0.996727 199 197 191 255
-0.105407 -0.147614 -6.562005 0.590848 -0.135991 0.795239 193 180 162 255
-0.103301 -0.147824 -6.563293 0.443432 -0.068745 0.893668 191 184 174 255
-0.100838 -0.147930 -6.564823 0.373125 -0.076407 0.924629 177 175 170 255
-0.097614 -0.147321 -6.566855 0.552451 -0.050580 0.832009 191 189 182 255
-0.095633 -0.146409 -6.568121 0.552233 -0.017622 0.833504 199 196 189 255
-0.088070 -0.143982 -6.573137 0.124211 -0.006638 0.992234 192 183 169 255
-0.085388 -0.144447 -6.574989 0.004880 -0.122105 0.992505 103 99 101 255
-0.081829 -0.143446 -6.577485 0.564023 -0.199901 0.801198 65 56 47 255
-0.074965 -0.139473 -6.582458 0.463431 -0.008508 0.886092 110 106 97 255
-0.061432 -0.135092 -6.592924 0.626756 -0.212006 0.749820 114 110 102 255
-0.057721 -0.134617 -6.595940 0.487663 -0.106719 0.866485 111 106 98 255
-0.312580 -0.148649 -6.530625 0.401460 -0.028582 0.915431 145 141 132 255
-0.310357 -0.149255 -6.530031 0.085021 0.041167 0.995528 134 127 119 255
-0.307086 -0.150242 -6.529205 -0.725115 -0.063204 0.685721 129 127 127 255
-0.304233 -0.151474 -6.528560 -0.400063 -0.058746 0.914603 133 137 141 255
-0.304719 -0.149823 -6.528512 -0.837520 -0.049236 0.544184 144 153 160 255
-0.302386 -0.151735 -6.528102 -0.717926 0.092006 0.690013 166 174 183 255
-0.300180 -0.152112 -6.527582 -0.445381 -0.016384 0.895191 169 170 172 255
-0.300950 -0.151152 -6.527673 -0.218109 -0.141638 0.965592 161 163 165 255
-0.298701 -0.151260 -6.527128 -0.227461 0.046064 0.972697 169 166 161 255
-0.290279 -0.151370 -6.525251 0.297370 0.022133 0.954506 203 196 182 255
-0.288255 -0.151261 -6.524832 -0.134259 0.014761 0.990836 188 180 166 255
-0.286276 -0.151313 -6.524457 -0.178052 0.006162 0.984002 161 151 140 255
-0.284082 -0.150993 -6.524023 0.466557 -0.093635 0.879521 170 163 155 255
-0.283345 -0.152645 -6.524054 0.535650 -0.034931 0.843717 175 170 161 255
-0.281159 -0.151316 -6.523551 0.703464 -0.071434 0.707132 161 152 135 255
-0.278862 -0.151453 -6.523195 0.061408 -0.080367 0.994872 128 117 105 255
-0.277030 -0.151098 -6.522883 0.292186 -0.084060 0.952660 116 107 99 255
-0.273862 -0.150406 -6.522372 -0.361329 -0.014131 0.932331 73 70 66 255
-0.272019 -0.150180 -6.522113 -0.316208 0.044980 0.947623 69 68 66 255
-0.269796 -0.150539 -6.521878 -0.312448 -0.069024 0.947424 60 59 58 255
-0.268764 -0.152346 -6.521926 -0.329872 -0.106245 0.938028 41 41 40 255
-0.266624 -0.154393 -6.521879 -0.521379 -0.072694 0.850223 34 34 32 255
-0.263791 -0.153740 -6.521546 0.199942 -0.028443 0.979395 60 62 64 255
-0.261643 -0.153798 -6.521366 0.160425 -0.041441 0.986178 102 103 103 255
-0.259733 -0.153729 -6.521212 0.047398 -0.034998 0.998263 164 162 156 255
-0.257936 -0.153557 -6.521073 0.176500 -0.033046 0.983746 150 143 135 255
-0.251346 -0.153296 -6.520718 0.613410 -0.004947 0.789749 140 131 117 255
-0.250250 -0.152481 -6.520614 0.444436 -0.034753 0.895136 132 122 113 255
-0.246638 -0.153684 -6.520627 -0.130047 -0.035855 0.990859 91 84 76 255
-0.246678 -0.154007 -6.520653 0.636652 0.024818 0.770752 102 93 85 255
-0.231991 -0.155225 -6.520979 -0.287529 -0.023313 0.957488 99 101 100 255
-0.231042 -0.157101 -6.521162 -0.213617 -0.023269 0.976640 146 147 145 255
-0.230014 -0.155329 -6.521090 0.034506 -0.061908 0.997485 172 172 166 255
-0.229025 -0.157150 -6.521277 -0.055508 -0.062311 0.996512 170 167 160 255
-0.227991 -0.155368 -6.521215 -0.046178 -0.028802 0.998518 164 158 152 255
-0.226878 -0.157198 -6.521419 -0.043647 0.015655 0.998924 144 138 131 255
-0.225788 -0.155612 -6.521387 -0.398988 -0.071326 0.914178 148 145 140 255
-0.224862 -0.157369 -6.521579 -0.513098 0.104884 0.851897 148 149 149 255
-0.222145 -0.157566 -6.521820 -0.805385 -0.038046 0.591530 158 168 177 255
-0.218945 -0.157370 -6.522117 -0.176092 0.035831 0.983721 168 171 173 255
-0.216868 -0.157567 -6.522355 -0.652457 0.041894 0.756667 193 193 190 255
-0.216834 -0.157543 -6.522357 -0.672027 0.058022 0.738250 193 193 190 255
-0.215105 -0.156963 -6.522521 -0.260505 0.079788 0.962170 200 198 193 255
-0.212864 -0.158239 -6.522884 0.077106 -0.040187 0.996213 213 210 203 255
-0.210632 -0.157594 -6.523145 0.615726 -0.144813 0.774539 209 205 195 255
-0.208477 -0.156776 -6.523407 0.512823 -0.146956 0.845823 201 197 187 255
-0.206095 -0.156006 -6.523731 -0.154523 0.023707 0.987705 181 172 161 255
-0.203844 -0.156178 -6.524114 -0.003820 -0.014595 0.999886 170 160 146 255
-0.201693 -0.156069 -6.524485 -0.042732 0.024791 0.998779 173 167 159 255
-0.199728 -0.156357 -6.524864 -0.505435 -0.032144 0.862266 151 152 153 255
-0.197072 -0.156557 -6.525391 0.762150 -0.090462 0.641049 144 147 149 255
-0.194893 -0.157092 -6.525867 0.186980 0.004106 0.982355 166 170 172 255
-0.192734 -0.157598 -6.526356 -0.334644 0.028058 0.941927 184 185 184 255
-0.192727 -0.157613 -6.526358 -0.324772 0.029350 0.945337 184 185 184 255
-0.190346 -0.157311 -6.526875 0.407088 -0.029422 0.912915 203 202 197 255
-0.189033 -0.158572 -6.527246 0.725428 0.046485 0.686726 197 195 187 255
-0.186961 -0.157339 -6.527678 0.744726 -0.000704 0.667370 208 204 193 255
-0.184162 -0.156839 -6.528353 0.643556 0.015532 0.765241 206 200 187 255
-0.182146 -0.155525 -6.528814 0.474596 -0.059425 0.878195 196 186 172 255
-0.179929 -0.155527 -6.529415 0.508296 -0.101965 0.855125 175 166 151 255
-0.157961 -0.155603 -6.536530 0.446528 -0.027049 0.894361 132 130 124 255
-0.155668 -0.155615 -6.537394 0.502892 -0.032420 0.863741 194 186 175 255
-0.153747 -0.154583 -6.538098 0.376388 -0.070469 0.923778 181 168 154 255
-0.136290 -0.151044 -6.545486 -0.115516 -0.181202 0.976638 86 85 78 255
-0.133771 -0.151024 -6.546681 0.053648 -0.038014 0.997836 96 94 93 255
-0.134472 -0.152899 -6.546398 0.252142 -0.031644 0.967173 91 89 86 255
-0.132236 -0.153006 -6.547476 0.242364 0.000438 0.970185 99 98 96 255
-0.129677 -0.153344 -6.548742 0.379971 -0.025200 0.924655 164 162 153 255
-0.127292 -0.153337 -6.549939 0.428417 -0.038453 0.902763 186 177 165 255
-0.123315 -0.151334 -6.551946 0.228710 -0.076998 0.970445 187 183 178 255
-0.120975 -0.151395 -6.553189 -0.037755 -0.057676 0.997621 161 164 165 255
-0.118848 -0.151101 -6.554332 0.064434 -0.054046 0.996457 177 180 177 255
-0.120022 -0.153182 -6.553739 -0.044247 -0.040452 0.998201 169 171 171 255
-0.116529 -0.151057 -6.555608 0.106204 -0.031136 0.993857 192 192 187 255
-0.117707 -0.153106 -6.554997 0.272447 -0.038165 0.961414 185 186 183 255
-0.115372 -0.153027 -6.556291 0.096183 0.022166 0.995117 200 199 192 255
-0.107641 -0.148845 -6.560683 0.660218 -0.079319 0.746874 193 180 164 255
-0.102134 -0.150173 -6.564046 0.237008 -0.042577 0.970574 173 169 162 255
-0.095838 -0.149362 -6.568021 0.549759 -0.069252 0.832447 199 197 190 255
-0.089110 -0.146693 -6.572452 0.620311 0.087311 0.779482 202 192 175 255
-0.086733 -0.146388 -6.574072 -0.004836 -0.027775 0.999603 158 153 150 255
-0.084187 -0.146526 -6.575840 0.050791 -0.115299 0.992032 88 83 81 255
-0.081591 -0.145915 -6.577667 0.496665 -0.081974 0.864063 86 78 70 255
-0.073990 -0.140937 -6.583188 0.661946 -0.073934 0.745896 121 117 108 255
-0.055073 -0.134044 -6.598131 0.295109 -0.003561 0.955457 130 126 118 255
-0.311651 -0.150977 -6.530606 0.294204 -0.160858 0.942108 141 135 126 255
-0.308338 -0.151526 -6.529699 -0.460591 -0.082525 0.883768 122 116 111 255
-0.305931 -0.152248 -6.529104 -0.739256 -0.052769 0.671354 137 141 145 255
-0.305931 -0.152248 -6.529104 -0.739256 -0.052769 0.671354 137 141 145 255
-0.305874 -0.152221 -6.529085 -0.748452 -0.050831 0.661238 137 141 146 255
-0.303402 -0.153145 -6.528519 -0.454328 0.013011 0.890739 144 148 153 255
-0.301731 -0.153288 -6.528099 -0.744216 -0.010802 0.667851 173 180 188 255
-0.300887 -0.154856 -6.528049 -0.718585 -0.031017 0.694747 179 183 187 255
-0.301975 -0.152662 -6.528095 -0.545454 -0.019176 0.837922 158 161 166 255
-0.299603 -0.153414 -6.527575 0.170946 -0.037179 0.984579 174 175 174 255
-0.298584 -0.155180 -6.527509 -0.317932 0.077788 0.944917 189 187 184 255
-0.297322 -0.153698 -6.527051 0.299137 0.073339 0.951388 193 190 185 255
-0.296357 -0.155748 -6.527035 0.312654 -0.044732 0.948813 199 195 187 255
-0.295168 -0.154378 -6.526619 0.541580 0.030546 0.840094 203 198 189 255
-0.292332 -0.154937 -6.526045 0.094817 -0.025702 0.995163 211 203 189 255
-0.293428 -0.153402 -6.526129 0.374371 0.007058 0.927252 211 204 191 255
-0.290243 -0.154709 -6.525579 0.258756 -0.130768 0.957050 203 196 182 255
-0.291200 -0.152969 -6.525604 0.374635 -0.007069 0.927146 210 202 188 255
-0.288308 -0.154877 -6.525204 -0.041265 -0.037953 0.998427 186 177 163 255
-0.289176 -0.153253 -6.525216 0.269307 -0.076307 0.960027 195 187 173 255
-0.289256 -0.153003 -6.525207 0.005924 -0.072826 0.997327 194 186 173 255
-0.286270 -0.154971 -6.524817 -0.041138 -0.064038 0.997099 155 144 132 255
-0.287270 -0.153036 -6.524817 -0.088836 0.000971 0.996046 167 157 144 255
-0.284476 -0.154603 -6.524447 0.376082 -0.118183 0.919019 164 157 149 255
-0.285387 -0.153050 -6.524462 0.275882 -0.036785 0.960487 150 140 131 255
-0.282399 -0.154520 -6.524071 0.719521 -0.005486 0.694449 179 172 159 255
-0.278055 -0.152874 -6.523206 0.170461 -0.053220 0.983926 123 113 104 255
-0.275973 -0.152828 -6.522892 0.092945 -0.132833 0.986771 82 76 70 255
-0.273909 -0.152683 -6.522592 0.149647 -0.021685 0.988502 39 38 35 255
-0.269575 -0.153475 -6.522121 -0.396085 -0.294867 0.869580 32 32 30 255
-0.268188 -0.154877 -6.522090 -0.699706 -0.043372 0.713113 26 27 26 255
-0.267814 -0.154630 -6.522027 0.096512 -0.353097 0.930595 32 33 31 255
-0.265644 -0.154871 -6.521822 -0.520237 -0.052215 0.852424 46 48 48 255
-0.260635 -0.155575 -6.521440 -0.156092 -0.042556 0.986825 148 148 144 255
-0.261564 -0.157372 -6.521669 0.038942 -0.071504 0.996680 110 111 110 255
-0.258742 -0.155479 -6.521292 -0.026651 -0.039628 0.998859 148 142 135 255
-0.259640 -0.157310 -6.521512 -0.027315 -0.073490 0.996922 165 162 157 255
-0.257152 -0.155143 -6.521158 0.242092 -0.080473 0.966910 147 138 131 255
-0.251381 -0.155960 -6.520937 0.631563 0.053119 0.773503 137 129 114 255
-0.249486 -0.154679 -6.520771 0.636482 0.024301 0.770908 117 107 96 255
-0.245370 -0.156102 -6.520802 -0.537346 -0.065011 0.840853 64 60 52 255
-0.233231 -0.159275 -6.521218 0.192695 -0.048533 0.980058 71 73 74 255
-0.232018 -0.158843 -6.521239 -0.499270 0.015174 0.866314 106 108 108 255
-0.230068 -0.158849 -6.521338 0.108800 -0.002895 0.994059 174 174 170 255
-0.227942 -0.158884 -6.521466 -0.058876 -0.027213 0.997894 159 153 147 255
-0.225644 -0.159241 -6.521648 -0.423041 0.083718 0.902235 153 151 150 255
-0.223118 -0.159184 -6.521844 -0.784710 0.064099 0.616540 152 161 170 255
-0.221349 -0.159059 -6.521993 -0.422564 0.022692 0.906049 148 155 162 255
-0.218387 -0.160878 -6.522405 -0.368856 0.041901 0.928542 178 180 180 255
-0.219584 -0.158950 -6.522156 -0.688777 0.039956 0.723872 164 169 172 255
-0.216291 -0.160871 -6.522633 0.119560 0.005935 0.992809 194 193 189 255
-0.217275 -0.159133 -6.522411 -0.395928 0.057750 0.916464 187 188 186 255
-0.214051 -0.160352 -6.522866 0.073661 0.079187 0.994135 207 205 198 255
-0.212206 -0.160305 -6.523099 0.557913 0.106096 0.823089 209 206 198 255
-0.208988 -0.158863 -6.523459 0.618729 -0.276553 0.735318 199 196 185 255
-0.206146 -0.160358 -6.523983 -0.212168 0.603095 0.768935 189 182 171 255
-0.204902 -0.158014 -6.524045 0.065594 -0.110432 0.991717 176 167 154 255
-0.202831 -0.158072 -6.524400 -0.185782 -0.090999 0.978368 179 170 158 255
-0.200774 -0.158360 -6.524784 0.159979 0.585092 0.795031 163 161 156 255
-0.199909 -0.158863 -6.524972 -0.155958 0.700321 0.696583 150 150 150 255
-0.195981 -0.158543 -6.525722 0.343505 0.430047 0.834903 157 160 163 255
-0.193609 -0.159564 -6.526272 -0.187330 0.047832 0.981132 178 180 180 255
-0.193807 -0.159289 -6.526215 -0.476163 0.111693 0.872235 180 181 182 255
-0.191769 -0.159401 -6.526664 -0.244367 0.035757 0.969023 192 192 189 255
-0.189904 -0.160300 -6.527133 0.450974 0.060586 0.890479 201 200 194 255
-0.182258 -0.158189 -6.528915 0.433339 -0.047567 0.899975 187 176 160 255
-0.180161 -0.158160 -6.529477 0.369572 -0.095734 0.924258 182 173 157 255
-0.160686 -0.156985 -6.535586 0.622536 -0.074916 0.778997 93 89 87 255
-0.159131 -0.157819 -6.536182 0.495643 -0.027559 0.868089 106 103 100 255
-0.156851 -0.157832 -6.537027 0.470555 -0.030034 0.881859 180 176 167 255
-0.153870 -0.157184 -6.538144 0.422047 -0.056908 0.904786 201 189 173 255
-0.137517 -0.153080 -6.544974 0.309426 -0.057211 0.949201 68 68 61 255
-0.134898 -0.153329 -6.546207 -0.105487 -0.139902 0.984530 95 91 90 255
-0.132755 -0.153248 -6.547231 -0.219856 -0.091936 0.971191 114 114 114 255
-0.132523 -0.154866 -6.547386 0.042335 -0.062393 0.997153 100 98 97 255
-0.126406 -0.154767 -6.550424 0.431753 -0.025263 0.901638 177 166 154 255
-0.123344 -0.155190 -6.552017 0.234619 -0.101520 0.966772 181 177 173 255
-0.124548 -0.153275 -6.551346 0.307991 -0.047630 0.950196 183 175 165 255
-0.121136 -0.155111 -6.553182 -0.081821 -0.093150 0.992285 162 164 165 255
-0.122251 -0.153234 -6.552549 0.119114 -0.095884 0.988240 166 166 165 255
-0.118884 -0.155055 -6.554393 0.035599 -0.039427 0.998588 178 180 178 255
-0.114808 -0.154850 -6.556640 0.559949 -0.008468 0.828484 200 198 189 255
-0.108064 -0.152180 -6.560484 0.663131 -0.020278 0.748228 196 184 168 255
-0.105800 -0.150893 -6.561817 0.600704 -0.053905 0.797652 200 188 170 255
-0.099710 -0.150153 -6.565558 0.223918 -0.076381 0.971610 181 180 174 255
-0.097864 -0.150122 -6.566728 0.552620 -0.080048 0.829580 189 188 181 255
-0.098701 -0.152363 -6.566221 -0.007735 -0.033596 0.999406 189 187 180 255
-0.085486 -0.148579 -6.574947 -0.004540 -0.017133 0.999843 104 99 101 255
-0.082910 -0.148449 -6.576746 0.306549 -0.005176 0.951841 91 86 81 255
-0.074470 -0.143024 -6.582835 0.613134 -0.028354 0.789470 118 115 107 255
-0.071794 -0.143000 -6.584840 0.469961 -0.040982 0.881735 172 167 151 255
-0.068974 -0.142651 -6.586987 0.680805 -0.102562 0.725249 191 180 162 255
-0.056533 -0.137001 -6.596908 0.624713 0.012853 0.780749 123 120 112 255
-0.054963 -0.137979 -6.598202 0.337892 -0.155044 0.928327 129 129 125 255
-0.046787 -0.136004 -6.605164 0.637912 -0.100808 0.763483 177 175 167 255
-0.309657 -0.153317 -6.530275 -0.431933 0.199210 0.879630 120 113 105 255
-0.307476 -0.153620 -6.529683 -0.746875 -0.040351 0.663740 151 152 152 255
-0.304884 -0.154171 -6.529025 -0.747071 -0.029189 0.664104 147 154 160 255
-0.304006 -0.156163 -6.529001 -0.731762 -0.017397 0.681339 156 164 171 255
-0.302921 -0.154409 -6.528527 -0.480126 0.051580 0.875682 153 157 162 255
-0.302046 -0.156165 -6.528484 -0.456776 0.036454 0.888835 160 164 167 255
-0.299300 -0.157419 -6.527918 -0.482578 0.039112 0.874979 184 184 182 255
-0.297343 -0.157524 -6.527452 -0.148597 0.030364 0.988432 195 191 185 255
-0.295382 -0.157346 -6.526972 0.315982 -0.109851 0.942384 205 200 190 255
-0.294761 -0.156223 -6.526715 0.692145 -0.164664 0.702723 203 197 187 255
-0.294761 -0.156223 -6.526715 0.692145 -0.164664 0.702723 203 197 187 255
-0.294761 -0.156223 -6.526715 0.692145 -0.164664 0.702723 203 197 187 255
-0.293682 -0.157649 -6.526617 0.814555 -0.101051 0.571217 205 197 183 255
-0.293684 -0.157655 -6.526618 0.813001 -0.102271 0.573210 205 197 183 255
-0.293684 -0.157655 -6.526618 0.813001 -0.102271 0.573210 205 197 183 255
-0.291324 -0.156583 -6.525994 0.038786 -0.047941 0.998097 210 202 186 255
-0.289257 -0.156481 -6.525554 -0.022337 -0.055334 0.998218 195 188 172 255
-0.287332 -0.156554 -6.525177 -0.249423 -0.002966 0.968390 166 157 143 255
-0.285391 -0.156465 -6.524797 0.289246 -0.067039 0.954905 158 150 140 255
-0.280928 -0.154837 -6.523852 0.803394 -0.002953 0.595440 156 147 129 255
-0.277027 -0.154532 -6.523207 0.075742 -0.062627 0.995159 112 103 96 255
-0.274998 -0.154553 -6.522915 0.255386 0.021670 0.966596 46 42 39 255
-0.268502 -0.155716 -6.522201 -0.674938 -0.545767 0.496585 30 33 31 255
-0.267282 -0.155844 -6.522078 -0.704642 -0.076345 0.705444 28 30 28 255
-0.266637 -0.156749 -6.522090 -0.651110 -0.020760 0.758699 25 27 26 255
-0.266288 -0.158844 -6.522239 -0.573629 -0.085138 0.814679 42 44 43 255
-0.264809 -0.158985 -6.522101 -0.123872 -0.031911 0.991785 46 48 49 255
-0.265352 -0.157723 -6.522045 -0.354478 -0.074550 0.932088 44 46 47 255
-0.263523 -0.157415 -6.521843 0.246691 -0.061878 0.967117 55 57 59 255
-0.262629 -0.159075 -6.521906 0.098513 0.000764 0.995136 76 77 79 255
-0.259539 -0.158975 -6.521646 0.364195 -0.069997 0.928688 171 169 165 255
-0.257989 -0.157027 -6.521371 0.158055 -0.055321 0.985879 143 138 130 255
-0.257990 -0.157017 -6.521371 0.163272 -0.083356 0.983054 144 138 130 255
-0.257115 -0.158728 -6.521457 0.335719 -0.079903 0.938567 163 157 152 255
-0.255960 -0.156994 -6.521242 0.372765 -0.115993 0.920648 149 144 138 255
-0.256304 -0.158507 -6.521389 0.080947 -0.177796 0.980733 151 146 140 255
-0.254265 -0.158395 -6.521265 0.772967 -0.058755 0.631720 168 164 156 255
-0.249425 -0.157396 -6.520988 0.630144 0.047791 0.775006 116 107 96 255
-0.247306 -0.156200 -6.520840 -0.204833 0.004441 0.978787 106 98 90 255
-0.243822 -0.156902 -6.520852 -0.538083 -0.065454 0.840347 45 42 36 255
-0.241774 -0.158004 -6.520936 -0.530642 -0.011674 0.847516 36 36 31 255
-0.235256 -0.159493 -6.521161 -0.582235 -0.093837 0.807587 55 56 56 255
-0.233007 -0.160735 -6.521332 0.107186 -0.108508 0.988300 77 79 81 255
-0.231098 -0.160678 -6.521414 -0.174945 -0.033868 0.983996 152 153 152 255
-0.229127 -0.160667 -6.521518 -0.186555 0.001668 0.982443 177 176 171 255
-0.226724 -0.160902 -6.521686 -0.178974 0.216027 0.959844 167 164 161 255
-0.224765 -0.161056 -6.521838 -0.542124 0.098160 0.834546 145 148 152 255
-0.222420 -0.160910 -6.522020 -0.697844 0.093489 0.710122 146 153 160 255
-0.220542 -0.160721 -6.522179 -0.462640 0.069262 0.883836 157 162 167 255
-0.219331 -0.162805 -6.522433 -0.061369 -0.023065 0.997849 169 172 175 255
-0.217316 -0.162738 -6.522638 -0.273505 -0.038814 0.961087 187 187 185 255
-0.215286 -0.162639 -6.522861 0.007458 -0.057126 0.998339 201 200 194 255
-0.213159 -0.162433 -6.523108 0.062578 0.153791 0.986120 210 208 200 255
-0.210663 -0.162297 -6.523430 0.440544 0.332129 0.834033 205 202 193 255
-0.209670 -0.162539 -6.523584 0.540801 0.366781 0.756971 197 194 184 255
-0.209529 -0.162962 -6.523629 0.654810 -0.341392 0.674296 198 195 186 255
-0.209116 -0.162228 -6.523644 0.479702 0.428210 0.765848 197 194 184 255
-0.207903 -0.162831 -6.523859 0.480130 0.478023 0.735506 186 184 174 255
-0.203913 -0.163184 -6.524511 -0.241346 0.562120 0.791058 183 182 178 255
-0.203920 -0.160657 -6.524364 -0.124252 0.698569 0.704673 178 172 161 255
-0.203610 -0.160941 -6.524433 0.186984 0.661074 0.726649 178 171 159 255
-0.203536 -0.160834 -6.524439 -0.153098 0.670630 0.725821 186 181 173 255
-0.203632 -0.160818 -6.524422 0.106607 0.685085 0.720620 178 170 158 255
-0.201684 -0.160507 -6.524743 -0.028479 0.705399 0.708238 178 174 163 255
-0.196633 -0.160452 -6.525694 0.748938 -0.003941 0.662629 153 155 157 255
-0.194563 -0.161495 -6.526174 -0.137957 0.044474 0.989439 172 174 176 255
-0.192609 -0.161354 -6.526583 -0.053000 -0.016993 0.998450 187 188 186 255
-0.190705 -0.161061 -6.526989 -0.044473 -0.024534 0.998709 198 197 192 255
-0.188386 -0.162544 -6.527600 0.509609 0.159242 0.845541 206 204 195 255
-0.184022 -0.159811 -6.528535 0.708183 0.099820 0.698937 204 197 182 255
-0.183375 -0.160359 -6.528728 0.491569 0.059492 0.868804 206 198 183 255
-0.181312 -0.160270 -6.529266 0.404935 -0.048639 0.913051 185 176 159 255
-0.179050 -0.160318 -6.529884 0.217151 -0.115640 0.969264 191 186 172 255
-0.160942 -0.158634 -6.535558 0.711357 -0.005521 0.702809 90 85 83 255
-0.133279 -0.155757 -6.547045 -0.479997 -0.032763 0.876658 105 104 102 255
-0.128548 -0.155626 -6.549361 0.515558 -0.044630 0.855692 195 189 177 255
-0.125331 -0.156946 -6.551024 0.353023 -0.102301 0.930005 180 169 158 255
-0.120667 -0.156846 -6.553468 -0.054487 -0.075720 0.995639 165 168 168 255
-0.118328 -0.156781 -6.554729 0.510155 -0.019156 0.859869 179 179 176 255
-0.116078 -0.157292 -6.555975 0.336515 -0.030833 0.941173 197 197 191 255
-0.114026 -0.156669 -6.557112 0.458026 -0.025122 0.888584 204 201 193 255
-0.113625 -0.154778 -6.557306 0.179808 -0.056107 0.982100 202 198 188 255
-0.106080 -0.154006 -6.561693 0.623443 -0.030792 0.781262 183 171 153 255
-0.103850 -0.152745 -6.563025 0.605189 0.011801 0.795994 189 182 171 255
-0.102191 -0.154341 -6.564063 0.103835 -0.043296 0.993652 170 167 161 255
-0.100910 -0.152399 -6.564834 -0.177918 -0.011400 0.983979 176 174 169 255
-0.099753 -0.154408 -6.565580 0.053648 -0.014874 0.998449 185 184 178 255
-0.098488 -0.152358 -6.566356 0.266678 -0.068880 0.961321 192 191 184 255
-0.096107 -0.152295 -6.567877 0.482449 -0.086854 0.871607 202 199 192 255
-0.088687 -0.149964 -6.572763 0.484659 0.041648 0.873711 202 194 179 255
-0.084032 -0.150473 -6.575969 0.229630 0.074069 0.970456 98 91 86 255
-0.074597 -0.146131 -6.582747 0.468411 -0.043270 0.882450 120 117 108 255
-0.073173 -0.145602 -6.583806 0.480503 -0.066612 0.874460 135 131 120 255
-0.070424 -0.145414 -6.585879 0.683171 -0.114075 0.721294 195 185 165 255
-0.070449 -0.145422 -6.585860 0.683730 -0.116299 0.720408 195 185 165 255
-0.056447 -0.140532 -6.596961 0.501059 -0.080801 0.861633 128 125 118 255
-0.053951 -0.140522 -6.599030 0.449817 -0.095767 0.887971 144 141 132 255
-0.047112 -0.138663 -6.604857 0.625330 -0.079616 0.776289 175 173 165 255
-0.312304 -0.155356 -6.531288 0.367620 -0.089507 0.925659 147 141 131 255
-0.311897 -0.156165 -6.531254 0.442300 -0.109560 0.890150 145 139 130 255
-0.308738 -0.155300 -6.530225 -0.735914 0.012431 0.676961 138 134 131 255
-0.306729 -0.156380 -6.529771 -0.738190 0.011808 0.674489 143 147 152 255
-0.305139 -0.157614 -6.529462 -0.737214 -0.057418 0.673215 147 154 159 255
-0.303245 -0.157646 -6.528955 -0.295578 -0.008403 0.955282 152 157 160 255
-0.300611 -0.158671 -6.528378 0.109451 0.006192 0.993973 170 171 171 255
-0.301199 -0.157860 -6.528443 -0.688285 0.016953 0.725242 174 178 181 255
-0.298325 -0.159175 -6.527859 0.080463 -0.053758 0.995307 188 186 182 255
-0.296378 -0.159294 -6.527403 -0.042235 -0.138063 0.989522 201 197 189 255
-0.294418 -0.158718 -6.526890 0.331407 -0.090204 0.939166 210 203 192 255
-0.292445 -0.158435 -6.526422 0.637626 -0.129888 0.759317 213 206 192 255
-0.290333 -0.158318 -6.525959 0.409600 -0.115024 0.904985 206 199 184 255
-0.288281 -0.158168 -6.525523 -0.121065 0.057306 0.990989 188 181 166 255
-0.286371 -0.158123 -6.525145 -0.227959 -0.017276 0.973517 162 154 141 255
-0.284072 -0.157615 -6.524666 0.645926 -0.079383 0.759261 178 171 162 255
-0.279892 -0.156773 -6.523866 0.345818 -0.020201 0.938084 134 125 113 255
-0.277989 -0.156434 -6.523532 0.143450 0.026295 0.989308 118 109 101 255
-0.275970 -0.156377 -6.523224 -0.163252 0.022705 0.986323 76 71 66 255
-0.268630 -0.159246 -6.522531 -0.693885 0.021813 0.719756 27 28 26 255
-0.269605 -0.158013 -6.522534 -0.605524 0.286424 0.742497 29 30 28 255
-0.268962 -0.158131 -6.522469 -0.450642 -0.025291 0.892346 29 30 29 255
-0.267902 -0.158295 -6.522364 -0.701264 -0.036153 0.711984 26 28 25 255
-0.266333 -0.160368 -6.522377 -0.524212 -0.099110 0.845801 43 44 43 255
-0.267362 -0.158023 -6.522280 -0.695581 0.004020 0.718437 25 27 25 255
-0.263615 -0.160912 -6.522154 0.142813 -0.002058 0.989748 58 59 61 255
-0.261563 -0.160901 -6.521971 0.011078 -0.015724 0.999815 119 120 120 255
-0.259176 -0.160383 -6.521738 -0.012397 -0.013705 0.999829 171 169 165 255
-0.257213 -0.160491 -6.521610 -0.364598 -0.105773 0.925138 170 167 163 255
-0.255415 -0.160480 -6.521499 0.726502 0.212847 0.653370 160 157 151 255
-0.251329 -0.158791 -6.521165 0.669402 -0.175003 0.721994 141 132 120 255
-0.247590 -0.159134 -6.521079 0.148403 -0.023122 0.988657 135 125 117 255
-0.244973 -0.159679 -6.521077 -0.827068 -0.095841 0.553870 55 57 61 255
-0.241078 -0.159852 -6.521080 -0.421181 0.310028 0.852343 32 32 30 255
-0.236826 -0.158358 -6.521033 -0.693955 0.161948 0.701570 53 51 47 255
-0.238231 -0.159615 -6.521096 -0.678568 0.234310 0.696164 39 39 37 255
-0.235197 -0.161116 -6.521281 -0.584651 -0.102130 0.804831 56 57 58 255
-0.234098 -0.161817 -6.521369 -0.591573 -0.030312 0.805681 67 69 70 255
-0.232311 -0.162310 -6.521474 -0.050889 -0.103464 0.993330 99 102 103 255
-0.230170 -0.162367 -6.521580 0.054316 -0.040665 0.997695 173 174 171 255
-0.228014 -0.162531 -6.521714 -0.409269 -0.031232 0.911879 178 177 175 255
-0.225716 -0.162772 -6.521884 -0.504326 0.094268 0.858352 155 157 160 255
-0.223408 -0.162540 -6.522046 -0.700498 0.101544 0.706393 146 153 160 255
-0.222466 -0.164113 -6.522229 -0.069886 -0.017416 0.997403 145 152 158 255
-0.221548 -0.162308 -6.522190 -0.158022 -0.075936 0.984512 150 157 162 255
-0.220424 -0.164337 -6.522426 -0.528139 0.058273 0.847156 163 168 172 255
-0.218573 -0.164635 -6.522627 -0.162226 0.245811 0.955646 178 180 180 255
-0.216711 -0.164655 -6.522826 -0.267823 0.230675 0.935446 192 191 188 255
-0.214260 -0.164385 -6.523093 0.103659 -0.070866 0.992085 204 202 196 255
-0.209584 -0.164014 -6.523685 0.383055 0.235470 0.893209 187 186 181 255
-0.206453 -0.165088 -6.524212 0.387778 0.166338 0.906620 143 143 142 255
-0.204951 -0.165323 -6.524464 -0.045300 0.082378 0.995571 151 153 152 255
-0.200892 -0.164716 -6.525121 0.755254 0.050794 0.653461 161 159 152 255
-0.202905 -0.165347 -6.524804 0.235394 0.019422 0.971706 173 172 166 255
-0.195604 -0.162994 -6.526040 0.576179 -0.037290 0.816472 163 165 167 255
-0.194411 -0.163108 -6.526292 -0.094118 0.002198 0.995559 175 176 177 255
-0.193546 -0.163214 -6.526479 -0.150889 -0.016262 0.988417 181 182 181 255
-0.191544 -0.163199 -6.526913 -0.032297 -0.000070 0.999478 194 193 190 255
-0.193112 -0.165327 -6.526682 0.048243 0.091060 0.994676 185 185 184 255
-0.190446 -0.164972 -6.527248 0.507840 0.031742 0.860866 196 194 189 255
-0.186197 -0.163122 -6.528154 0.743885 -0.046636 0.666678 212 207 196 255
-0.182419 -0.162436 -6.529077 0.479017 -0.043365 0.876734 201 194 179 255
-0.184347 -0.162711 -6.528594 0.710197 0.105763 0.696013 205 200 186 255
-0.180262 -0.162349 -6.529647 0.314174 -0.082557 0.945769 197 191 177 255
-0.178013 -0.162403 -6.530270 0.209341 -0.187236 0.959749 186 179 168 255
-0.174642 -0.163819 -6.531303 -0.063281 0.619655 0.782319 213 197 158 255
-0.160101 -0.161289 -6.535961 0.585392 -0.076908 0.807095 93 91 89 255
-0.158041 -0.160097 -6.536667 0.532948 -0.038616 0.845266 132 130 125 255
-0.155747 -0.160095 -6.537526 0.552560 -0.010309 0.833410 198 189 176 255
-0.156118 -0.161524 -6.537437 0.500737 -0.036477 0.864830 201 195 184 255
-0.149701 -0.160318 -6.539907 0.072294 -0.112063 0.991068 184 178 172 255
-0.147505 -0.160312 -6.540809 0.146579 -0.120787 0.981797 114 107 107 255
-0.133877 -0.158106 -6.546821 -0.651435 0.143199 0.745068 115 115 115 255
-0.133877 -0.158106 -6.546821 -0.651435 0.143199 0.745068 113 113 113 255
-0.132644 -0.158604 -6.547424 -0.709964 0.004936 0.704221 105 105 103 255
-0.132619 -0.158405 -6.547431 -0.617487 -0.039365 0.785595 104 103 101 255
-0.132621 -0.158409 -6.547430 -0.623538 -0.018501 0.781574 106 105 103 255
-0.129785 -0.157981 -6.548803 0.486605 -0.043132 0.872557 170 167 156 255
-0.127408 -0.157985 -6.549990 0.522355 -0.056876 0.850829 202 192 178 255
-0.124214 -0.159304 -6.551651 0.237062 -0.072606 0.968778 187 181 173 255
-0.121988 -0.159251 -6.552814 -0.070823 -0.035108 0.996871 163 165 165 255
-0.119570 -0.158980 -6.554098 0.408287 -0.110727 0.906113 174 176 176 255
-0.117262 -0.159208 -6.555357 0.262399 -0.084265 0.961273 190 190 186 255
-0.114924 -0.159270 -6.556652 0.370594 -0.074835 0.925775 204 202 195 255
-0.107187 -0.155889 -6.561059 0.577731 -0.232673 0.782362 193 181 164 255
-0.100979 -0.156433 -6.564837 0.091030 -0.008020 0.995816 176 174 170 255
-0.098747 -0.156252 -6.566233 0.233982 -0.042398 0.971316 191 189 184 255
-0.097149 -0.154739 -6.567232 0.443766 -0.060603 0.894091 198 196 189 255
-0.087409 -0.152276 -6.573647 0.569865 0.056224 0.819812 177 170 163 255
-0.083257 -0.152295 -6.576518 0.137658 -0.022452 0.990225 97 90 85 255
-0.074581 -0.148216 -6.582760 0.641891 -0.083084 0.762281 121 117 109 255
-0.070279 -0.148402 -6.585986 0.321902 -0.008779 0.946732 198 188 168 255
-0.071910 -0.148153 -6.584754 0.681425 -0.081915 0.727289 175 167 151 255
-0.047325 -0.141123 -6.604650 0.624863 -0.037821 0.779817 176 174 166 255
-0.045385 -0.139730 -6.606348 0.377527 0.009566 0.925949 186 185 177 255
-0.044253 -0.139319 -6.607342 0.581881 -0.081825 0.809147 192 191 183 255
-0.042237 -0.138459 -6.609130 0.532443 -0.084514 0.842236 203 200 193 255
-0.312911 -0.157876 -6.531752 0.445877 -0.064026 0.892801 147 142 132 255
-0.310885 -0.157902 -6.531139 -0.178656 0.232418 0.956067 141 136 130 255
-0.308754 -0.157910 -6.530513 -0.782552 -0.206034 0.587505 151 153 155 255
-0.307795 -0.157683 -6.530212 -0.744847 -0.029156 0.666598 150 151 152 255
-0.306388 -0.158579 -6.529911 -0.739793 -0.109491 0.663866 139 143 147 255
-0.303910 -0.159646 -6.529344 -0.719555 0.061044 0.691747 160 168 175 255
-0.302435 -0.159188 -6.528903 -0.500456 0.011250 0.865689 163 167 170 255
-0.301901 -0.159979 -6.528846 -0.694609 0.008994 0.719331 169 174 178 255
-0.299739 -0.160194 -6.528315 -0.327549 0.048692 0.943579 182 182 179 255
-0.297438 -0.160720 -6.527802 -0.134065 0.117314 0.984004 197 193 186 255
-0.295393 -0.160717 -6.527317 0.518407 0.024941 0.854770 207 202 192 255
-0.293315 -0.161365 -6.526907 0.412954 -0.167595 0.895199 215 208 195 255
-0.291484 -0.160295 -6.526399 0.578981 -0.081702 0.811238 213 206 191 255
-0.289464 -0.160304 -6.525974 -0.085594 0.134363 0.987229 196 190 176 255
-0.287436 -0.160372 -6.525571 -0.189268 0.026868 0.981558 182 176 164 255
-0.287334 -0.160370 -6.525551 -0.269856 -0.008411 0.962864 182 176 164 255
-0.285248 -0.159610 -6.525076 0.468153 0.041918 0.882653 174 168 159 255
-0.281805 -0.160781 -6.524567 0.844765 -0.075970 0.529717 176 167 150 255
-0.280980 -0.158673 -6.524226 0.808599 0.018511 0.588068 156 147 129 255
-0.279030 -0.158296 -6.523870 0.190847 0.024055 0.981325 125 114 105 255
-0.276970 -0.158208 -6.523542 0.267863 0.020716 0.963234 109 101 95 255
-0.275265 -0.159713 -6.523430 -0.254969 -0.020044 0.966741 58 55 51 255
-0.270327 -0.160547 -6.522848 -0.695040 0.202395 0.689895 48 48 46 255
-0.268181 -0.160271 -6.522570 -0.678142 0.148312 0.719810 33 34 32 255
-0.264453 -0.162998 -6.522414 -0.329133 0.033641 0.943684 62 64 67 255
-0.260120 -0.162018 -6.521947 0.316254 0.059836 0.946786 163 162 161 255
-0.258230 -0.162253 -6.521826 -0.137856 0.013569 0.990359 165 164 162 255
-0.254614 -0.162784 -6.521643 0.834528 -0.216950 0.506454 167 163 156 255
-0.254553 -0.162592 -6.521624 0.813291 -0.071199 0.577485 171 167 160 255
-0.252883 -0.161506 -6.521451 -0.288720 0.275234 0.916999 174 167 155 255
-0.248421 -0.161124 -6.521256 0.249582 -0.019919 0.968149 143 132 125 255
-0.246351 -0.161149 -6.521212 0.069333 -0.184658 0.980354 88 80 76 255
-0.242377 -0.161460 -6.521198 -0.426610 0.177709 0.886805 51 50 46 255
-0.235426 -0.162921 -6.521405 -0.645408 -0.000418 0.763838 55 56 56 255
-0.236791 -0.162097 -6.521309 -0.715207 0.083458 0.693912 73 71 68 255
-0.234162 -0.164181 -6.521535 -0.600651 0.094900 0.793859 74 75 78 255
-0.231279 -0.164100 -6.521646 -0.059438 -0.100924 0.993117 149 151 151 255
-0.228997 -0.164178 -6.521770 -0.362533 0.046434 0.930814 178 178 177 255
-0.226086 -0.164836 -6.521997 -0.275757 0.035376 0.960576 158 161 164 255
-0.225504 -0.166087 -6.522122 -0.129864 -0.110983 0.985301 151 156 160 255
-0.223604 -0.166096 -6.522265 -0.216559 -0.155413 0.963820 141 148 154 255
-0.221822 -0.165992 -6.522407 -0.314427 -0.298219 0.901222 153 159 163 255
-0.219891 -0.166126 -6.522592 -0.274333 -0.094570 0.956973 167 170 173 255
-0.217974 -0.166546 -6.522810 -0.432835 0.313397 0.845243 188 188 187 255
-0.214734 -0.165901 -6.523129 0.350792 -0.006552 0.936431 200 199 193 255
-0.212581 -0.165944 -6.523397 0.413319 -0.060624 0.908566 201 199 193 255
-0.210435 -0.166065 -6.523688 -0.128531 -0.102156 0.986430 172 171 168 255
-0.208426 -0.166210 -6.523981 -0.483900 0.105751 0.868711 161 160 158 255
