ply
format ascii 1.0
element vertex 655
property float x
property float y
property float z
property float nx
property float ny
property float nz
property uchar red
property uchar green
property uchar blue
property uchar alpha
end_header
-0.585801 -0.066764 -6.645204 0.415620 -0.068893 0.906926 132 130 117 255
-0.582647 -0.067703 -6.643736 0.426803 -0.098574 0.898956 85 82 63 255
-0.581481 -0.067102 -6.643210 0.348548 -0.821167 0.451883 60 57 43 255
-0.579145 -0.067982 -6.642120 -0.332932 -0.817027 0.470769 49 48 42 255
-0.569836 -0.071113 -6.637784 -0.401496 0.255404 0.879528 25 25 23 255
-0.562816 -0.071169 -6.634553 -0.372952 0.308860 0.874935 20 20 18 255
-0.561296 -0.072883 -6.633825 -0.138642 0.557549 0.818485 18 19 17 255
-0.560712 -0.073653 -6.633543 -0.460442 -0.009613 0.887638 24 27 30 255
-0.556281 -0.073300 -6.631511 0.398320 0.578235 0.712030 21 23 26 255
-0.554069 -0.073360 -6.630492 -0.041654 0.184305 0.981986 49 52 60 255
-0.552109 -0.073791 -6.629583 0.638633 0.475002 0.605410 116 118 123 255
-0.542282 -0.076448 -6.625017 -0.240815 0.206406 0.948370 139 140 137 255
-0.541226 -0.076089 -6.624537 -0.480852 0.175308 0.859097 148 148 141 255
-0.538958 -0.075020 -6.623511 0.626133 0.187671 0.756794 142 139 121 255
-0.535631 -0.072972 -6.622015 0.540027 0.211632 0.814606 44 42 35 255
-0.517570 -0.082026 -6.613552 -0.324781 0.197557 0.924926 63 72 81 255
-0.519163 -0.079661 -6.614325 -0.522521 -0.199514 0.828955 47 52 54 255
-0.513177 -0.082710 -6.611519 -0.062535 0.285599 0.956307 65 71 78 255
-0.511091 -0.080810 -6.610592 -0.395091 -0.020574 0.918411 59 66 76 255
-0.510595 -0.082279 -6.610339 0.178064 -0.229198 0.956955 77 84 97 255
-0.500931 -0.087118 -6.605810 -0.474435 0.267008 0.838819 152 158 167 255
-0.500931 -0.087118 -6.605810 -0.474435 0.267008 0.838819 152 158 167 255
-0.490340 -0.087371 -6.600933 0.538432 -0.106946 0.835855 176 178 179 255
-0.486799 -0.086261 -6.599322 0.489772 -0.463050 0.738720 178 175 157 255
-0.483986 -0.086150 -6.598030 -0.580132 -0.503316 0.640406 105 103 92 255
-0.482131 -0.086375 -6.597173 -0.557552 -0.422493 0.714587 109 108 108 255
-0.478307 -0.088568 -6.595376 -0.086544 -0.450764 0.888438 151 153 152 255
-0.479383 -0.086861 -6.595900 -0.309327 0.447583 0.839039 144 147 147 255
-0.477129 -0.086588 -6.594868 0.156715 -0.251519 0.955081 127 128 126 255
-0.473260 -0.087629 -6.593071 0.850248 -0.120820 0.512328 131 127 109 255
-0.472057 -0.084377 -6.592571 0.810020 -0.070963 0.582092 67 66 54 255
-0.450692 -0.092198 -6.582609 0.464811 -0.023311 0.885103 49 55 59 255
-0.447511 -0.091888 -6.581151 0.554224 -0.039052 0.831451 91 102 122 255
-0.444235 -0.094393 -6.579601 -0.556984 -0.219370 0.801028 151 162 172 255
-0.443915 -0.093851 -6.579463 -0.632098 0.002557 0.774884 150 162 171 255
-0.442044 -0.093460 -6.578609 0.268530 0.130595 0.954377 169 178 185 255
-0.439979 -0.093440 -6.577659 0.160300 -0.310679 0.936900 173 181 186 255
-0.437852 -0.094527 -6.576662 -0.010324 -0.082326 0.996552 172 178 184 255
-0.436883 -0.096059 -6.576190 0.473533 -0.065862 0.878310 169 173 172 255
-0.438909 -0.095469 -6.577133 -0.101787 -0.241394 0.965074 172 179 184 255
-0.436001 -0.093948 -6.575820 0.817229 -0.095668 0.568317 159 158 148 255
-0.433898 -0.093682 -6.574857 -0.150999 -0.116033 0.981700 121 118 104 255
-0.405776 -0.126509 -6.561363 0.569041 0.229026 0.789771 201 202 206 255
-0.403675 -0.127159 -6.560385 0.356550 0.187216 0.915326 237 237 234 255
-0.403004 -0.127788 -6.560066 -0.218102 0.030122 0.975461 232 232 230 255
-0.402967 -0.127571 -6.560052 -0.046889 0.059232 0.997142 231 231 229 255
-0.402278 -0.126862 -6.559748 0.362120 0.226779 0.904124 230 230 226 255
-0.402750 -0.125487 -6.559988 0.082853 0.142839 0.986272 228 229 226 255
-0.402274 -0.127047 -6.559742 0.369009 0.223489 0.902156 227 227 222 255
-0.399422 -0.115987 -6.558618 0.667933 0.023174 0.743860 197 195 178 255
-0.397828 -0.114878 -6.557903 0.768194 0.112296 0.630292 83 84 68 255
-0.389833 -0.103293 -6.554420 -0.498407 -0.055705 0.865152 130 135 139 255
-0.390928 -0.104338 -6.554906 0.127736 0.142792 0.981475 129 134 139 255
-0.388363 -0.105384 -6.553709 -0.466082 -0.276094 0.840560 138 141 143 255
-0.388019 -0.103185 -6.553587 -0.656361 -0.173021 0.734340 150 153 155 255
-0.386096 -0.105754 -6.552659 -0.283471 -0.046501 0.957853 143 146 147 255
-0.384078 -0.105735 -6.551731 -0.426593 -0.058232 0.902567 147 149 147 255
-0.378322 -0.103301 -6.549124 0.034594 -0.071780 0.996820 93 89 78 255
-0.376797 -0.102718 -6.548432 0.184417 -0.063620 0.980787 79 75 67 255
-0.374529 -0.101820 -6.547404 0.353738 -0.018320 0.935165 66 64 59 255
-0.372438 -0.101886 -6.546441 -0.582592 -0.046263 0.811447 50 50 47 255
-0.371336 -0.103778 -6.545901 -0.438590 -0.024768 0.898346 34 35 32 255
-0.369320 -0.103829 -6.544973 -0.465001 0.053024 0.883721 35 36 35 255
-0.365750 -0.103338 -6.543339 -0.498889 0.182099 0.847319 54 55 54 255
-0.356452 -0.110550 -6.538939 0.308554 -0.019561 0.951006 36 39 43 255
-0.354212 -0.110242 -6.537913 -0.062707 0.041478 0.997170 105 109 116 255
-0.351785 -0.109694 -6.536806 -0.015568 0.200861 0.979496 145 150 156 255
-0.351274 -0.112431 -6.536525 -0.667738 -0.154168 0.728256 151 157 161 255
-0.353023 -0.111927 -6.537338 0.170328 0.283138 0.943833 143 148 153 255
-0.345765 -0.114848 -6.533949 0.090599 0.198072 0.975992 163 164 166 255
-0.343593 -0.114668 -6.532953 0.007307 0.039676 0.999186 175 173 169 255
-0.333148 -0.117811 -6.528094 0.359059 -0.063492 0.931153 176 174 169 255
-0.330109 -0.116200 -6.526722 0.450705 -0.055169 0.890967 172 170 165 255
-0.327921 -0.116355 -6.525713 -0.365050 0.034460 0.930350 164 166 165 255
-0.325808 -0.116678 -6.524735 0.023976 -0.008281 0.999678 168 172 175 255
-0.323938 -0.117158 -6.523867 0.285961 0.000627 0.958241 165 168 168 255
-0.321905 -0.117386 -6.522928 0.261372 0.021151 0.965006 181 181 176 255
-0.319840 -0.117534 -6.521976 -0.030561 0.006835 0.999510 168 169 166 255
-0.316969 -0.118318 -6.520641 0.664504 0.225904 0.712321 175 178 181 255
-0.315173 -0.117023 -6.519837 0.637696 0.012268 0.770191 175 173 167 255
-0.767546 -0.039550 -6.729285 -0.071172 -0.461749 0.884151 88 86 82 255
-0.760650 -0.040184 -6.726101 -0.035288 -0.216392 0.975669 80 79 74 255
-0.753642 -0.041208 -6.722860 0.275172 -0.477499 0.834431 55 54 49 255
-0.748602 -0.041224 -6.720541 0.030230 -0.426918 0.903785 47 46 43 255
-0.741849 -0.041948 -6.717422 0.036864 -0.393486 0.918591 53 53 50 255
-0.727124 -0.046254 -6.710574 -0.114946 -0.825584 0.552448 59 59 58 255
-0.720390 -0.048447 -6.707438 -0.244725 -0.797773 0.551060 78 79 79 255
-0.713987 -0.048595 -6.704490 0.157438 -0.606756 0.779141 58 59 57 255
-0.710862 -0.047057 -6.703078 0.357664 -0.611125 0.706118 49 49 46 255
-0.705578 -0.048523 -6.700622 -0.141420 -0.120805 0.982551 52 51 50 255
-0.700802 -0.049040 -6.698416 -0.463482 -0.192184 0.865014 60 60 59 255
-0.693486 -0.050226 -6.695029 -0.151962 -0.887348 0.435341 120 122 125 255
-0.694569 -0.049949 -6.695532 -0.032966 -0.888376 0.457933 103 103 103 255
-0.692621 -0.050719 -6.694623 -0.303308 -0.551182 0.777305 105 106 106 255
-0.689385 -0.052896 -6.693097 -0.134393 -0.505918 0.852048 106 107 105 255
-0.689385 -0.052896 -6.693097 -0.134393 -0.505918 0.852048 104 106 103 255
-0.683807 -0.054440 -6.690505 -0.123669 -0.496401 0.859239 101 102 99 255
-0.687517 -0.049297 -6.692299 -0.405735 -0.182719 0.895541 98 100 99 255
-0.680156 -0.054931 -6.688817 -0.096634 -0.303594 0.947888 99 100 97 255
-0.674962 -0.056289 -6.686404 -0.166941 -0.789844 0.590150 101 102 100 255
-0.671473 -0.056634 -6.684793 0.027733 -0.245470 0.969007 108 110 106 255
-0.665036 -0.057201 -6.681822 -0.501904 -0.165126 0.849015 109 112 109 255
-0.653817 -0.059530 -6.676620 -0.438155 -0.482695 0.758305 112 115 120 255
-0.652934 -0.061366 -6.676183 -0.088155 -0.217236 0.972130 128 133 138 255
-0.648079 -0.060326 -6.673966 -0.329039 -0.501010 0.800451 117 121 125 255
-0.650850 -0.060598 -6.675237 -0.469276 -0.415296 0.779300 123 128 132 255
-0.642641 -0.061255 -6.671449 0.730376 -0.159044 0.664270 131 128 116 255
-0.640328 -0.060928 -6.670390 0.288987 -0.055634 0.955715 122 117 103 255
-0.637894 -0.060728 -6.669273 0.001556 0.042021 0.999116 108 104 98 255
-0.634726 -0.061091 -6.667810 -0.112776 0.047764 0.992472 128 126 122 255
-0.631673 -0.061465 -6.666399 0.564547 -0.382549 0.731398 131 130 110 255
-0.628980 -0.061652 -6.665157 0.575529 -0.216921 0.788487 83 79 57 255
-0.626722 -0.060414 -6.664139 0.093494 -0.345120 0.933890 29 28 20 255
-0.623793 -0.061291 -6.662776 -0.204526 -0.528001 0.824248 24 24 19 255
-0.615186 -0.062309 -6.658799 -0.277236 -0.503972 0.818017 25 26 24 255
-0.609892 -0.065731 -6.656305 -0.484553 -0.540470 0.687824 20 21 21 255
-0.602927 -0.066907 -6.653080 0.467653 -0.268352 0.842192 19 21 21 255
-0.600232 -0.067138 -6.651837 0.415827 -0.424555 0.804264 68 70 86 255
-0.597853 -0.067224 -6.650741 -0.010766 -0.267436 0.963515 126 129 135 255
-0.591912 -0.070344 -6.647955 -0.460105 -0.164923 0.872413 136 135 131 255
-0.589435 -0.070477 -6.646813 0.096359 -0.364456 0.926222 136 134 119 255
-0.587676 -0.069144 -6.646026 -0.119866 -0.211277 0.970048 134 132 118 255
-0.585634 -0.069000 -6.645089 0.280315 -0.597777 0.751056 98 93 73 255
-0.584652 -0.069180 -6.644634 0.488437 -0.308981 0.816064 92 87 67 255
-0.582355 -0.068944 -6.643581 -0.158366 -0.817859 0.553197 63 58 45 255
-0.578801 -0.070331 -6.641922 0.307404 -0.826835 0.471007 41 39 34 255
-0.577875 -0.068853 -6.641521 0.196412 -0.735029 0.648964 28 29 25 255
-0.562660 -0.075614 -6.634407 -0.470095 0.145074 0.870612 18 21 21 255
-0.556404 -0.076798 -6.631508 -0.026673 0.604517 0.796145 28 32 34 255
-0.554876 -0.076145 -6.630816 0.418610 0.246782 0.873993 36 40 46 255
-0.552497 -0.076670 -6.629713 0.569998 0.442961 0.692018 55 58 69 255
-0.550412 -0.076592 -6.628755 0.505718 0.284836 0.814320 133 135 138 255
-0.547243 -0.077201 -6.627286 0.067458 0.652748 0.754566 126 128 127 255
-0.545020 -0.077923 -6.626251 -0.372352 0.114098 0.921051 130 132 131 255
-0.541394 -0.078645 -6.624571 -0.315865 0.325723 0.891142 144 144 141 255
-0.538129 -0.077897 -6.623081 0.804166 0.207274 0.557094 144 139 120 255
-0.536034 -0.077543 -6.622123 0.764653 0.268758 0.585725 95 90 74 255
-0.534355 -0.077182 -6.621357 0.001969 -0.401515 0.915850 60 57 51 255
-0.526822 -0.079362 -6.617854 -0.410205 -0.352098 0.841284 59 61 64 255
-0.518713 -0.084357 -6.614039 -0.505843 0.120096 0.854225 96 101 108 255
-0.518475 -0.083552 -6.613943 -0.163561 -0.291987 0.942333 62 66 71 255
-0.518010 -0.083922 -6.613723 -0.414598 -0.356045 0.837461 106 109 112 255
-0.516116 -0.084344 -6.612844 -0.113403 0.251774 0.961119 115 122 133 255
-0.514261 -0.084858 -6.611982 -0.041160 -0.317466 0.947376 140 148 157 255
-0.515135 -0.085735 -6.612369 -0.156112 0.581836 0.798183 125 131 136 255
-0.511930 -0.084133 -6.610921 -0.048782 -0.062023 0.996882 120 126 133 255
-0.508064 -0.085490 -6.609120 0.067951 0.500312 0.863175 125 131 138 255
-0.501498 -0.088344 -6.606050 -0.469599 0.240248 0.849563 154 159 167 255
-0.489518 -0.089524 -6.600518 0.504725 0.281472 0.816104 174 176 175 255
-0.487409 -0.088765 -6.599561 0.815424 0.045342 0.577086 182 181 169 255
-0.484984 -0.089715 -6.598429 -0.359262 0.172916 0.917077 155 150 133 255
-0.487083 -0.090078 -6.599389 -0.301023 0.239816 0.922970 179 176 161 255
-0.482372 -0.089920 -6.597224 0.280930 0.190483 0.940635 146 144 143 255
-0.480898 -0.088447 -6.596570 0.283644 0.142583 0.948270 152 153 154 255
-0.479654 -0.090542 -6.595963 0.239692 0.121872 0.963169 159 161 161 255
-0.474828 -0.091473 -6.593727 0.073974 -0.036190 0.996603 154 152 143 255
-0.477270 -0.090697 -6.594863 0.167996 0.099735 0.980729 154 156 154 255
-0.476108 -0.088944 -6.594358 0.427479 -0.113757 0.896840 152 151 147 255
-0.473477 -0.090289 -6.593125 0.889210 -0.121444 0.441087 136 132 116 255
-0.472160 -0.088100 -6.592556 0.836363 -0.053637 0.545546 92 87 75 255
-0.469289 -0.088881 -6.591222 0.488139 0.020265 0.872530 59 58 54 255
-0.450108 -0.095080 -6.582292 -0.186686 0.060656 0.980545 46 52 57 255
-0.451016 -0.095939 -6.582695 0.113163 -0.011621 0.993508 50 55 58 255
-0.447665 -0.094421 -6.581179 0.515930 -0.039988 0.855697 85 96 114 255
-0.445394 -0.096223 -6.580103 -0.261164 -0.008625 0.965256 149 163 174 255
-0.442783 -0.096679 -6.578894 -0.389653 -0.159320 0.907076 159 167 175 255
-0.438007 -0.098101 -6.576673 0.439406 -0.112968 0.891157 171 176 181 255
-0.435497 -0.096313 -6.575549 0.840515 0.006935 0.541744 155 155 145 255
-0.409057 -0.128975 -6.562831 0.381887 0.285364 0.879050 79 80 86 255
-0.407510 -0.129502 -6.562110 -0.102052 0.192238 0.976028 108 110 117 255
-0.404828 -0.129381 -6.560878 0.612095 0.347766 0.710211 192 193 197 255
-0.399849 -0.130019 -6.558577 -0.561939 -0.088772 0.822402 232 232 228 255
-0.401062 -0.129897 -6.559137 -0.322572 -0.174446 0.930331 214 214 212 255
-0.399289 -0.118374 -6.558516 0.799047 0.031359 0.600451 193 191 174 255
-0.397624 -0.116854 -6.557775 0.567914 -0.140957 0.810928 71 71 55 255
-0.394588 -0.104611 -6.556586 0.673281 0.291563 0.679473 59 64 73 255
-0.389672 -0.106620 -6.554290 0.038648 -0.010738 0.999195 135 139 142 255
-0.385007 -0.107640 -6.552126 -0.244525 -0.089089 0.965542 144 147 147 255
-0.377515 -0.104806 -6.548727 -0.007740 -0.176790 0.984218 82 79 70 255
-0.375542 -0.104597 -6.547823 0.495960 -0.074445 0.865148 71 68 62 255
-0.373457 -0.103671 -6.546879 -0.239666 -0.060438 0.968973 45 44 40 255
-0.371471 -0.104978 -6.545943 -0.491309 0.024090 0.870652 29 30 28 255
-0.358837 -0.113227 -6.539991 -0.422391 -0.073948 0.903392 38 41 43 255
-0.355318 -0.112183 -6.538390 0.337120 -0.085461 0.937575 53 57 62 255
-0.355388 -0.112491 -6.538416 0.380571 -0.038407 0.923954 51 55 60 255
-0.351979 -0.113896 -6.536824 -0.383610 -0.224124 0.895886 118 121 124 255
-0.346920 -0.116771 -6.534448 -0.013947 -0.030437 0.999439 130 132 136 255
-0.344695 -0.116595 -6.533427 0.051794 0.109032 0.992688 173 172 170 255
-0.342673 -0.116286 -6.532502 0.063593 0.001163 0.997975 180 178 174 255
-0.336947 -0.119361 -6.529815 -0.018411 -0.116085 0.993069 168 166 163 255
-0.335851 -0.117501 -6.529343 0.124577 -0.017091 0.992063 170 169 166 255
-0.334289 -0.119690 -6.528587 0.229671 -0.001142 0.973268 173 170 165 255
-0.332167 -0.119711 -6.527610 0.365690 -0.032832 0.930158 185 183 177 255
-0.331106 -0.118303 -6.527146 0.393169 -0.037739 0.918692 184 182 175 255
-0.329117 -0.117820 -6.526239 -0.086868 -0.030179 0.995763 164 164 162 255
-0.326943 -0.118913 -6.525220 -0.660281 -0.164684 0.732741 182 186 189 255
-0.327827 -0.120040 -6.525608 -0.543672 0.102612 0.833002 168 170 169 255
-0.324811 -0.118742 -6.524242 -0.048095 -0.017735 0.998685 162 165 166 255
-0.325684 -0.120247 -6.524618 -0.153540 0.012643 0.988062 163 166 168 255
-0.323879 -0.120664 -6.523781 0.193696 0.012699 0.980980 165 167 167 255
-0.322778 -0.118751 -6.523307 0.058959 -0.036672 0.997587 176 177 173 255
-0.321771 -0.120588 -6.522812 0.088956 0.008442 0.996000 180 180 175 255
-0.321748 -0.120623 -6.522801 0.202598 -0.000062 0.979262 180 180 174 255
-0.319676 -0.120713 -6.521846 -0.199741 0.007248 0.979822 164 165 162 255
-0.313412 -0.118746 -6.518997 0.649867 0.000090 0.760048 162 158 146 255
-0.744082 -0.045978 -6.718381 -0.381647 -0.354148 0.853771 61 60 60 255
-0.738137 -0.045793 -6.715649 0.045346 -0.386925 0.920996 63 63 63 255
-0.732186 -0.046509 -6.712898 0.067258 -0.148053 0.986690 61 61 61 255
-0.730456 -0.048423 -6.712070 0.050830 0.043921 0.997741 75 75 74 255
-0.724832 -0.049325 -6.709467 0.060243 -0.248970 0.966636 73 74 72 255
-0.717627 -0.049882 -6.706142 -0.018369 -0.503217 0.863965 77 79 77 255
-0.712488 -0.051831 -6.703745 0.444952 -0.604512 0.660744 87 88 89 255
-0.708771 -0.050586 -6.702056 -0.336723 0.006350 0.941582 80 80 80 255
-0.706922 -0.051766 -6.701185 -0.303526 -0.541780 0.783803 95 96 96 255
-0.704181 -0.051428 -6.699930 -0.340626 -0.071904 0.937445 99 99 97 255
-0.701968 -0.053432 -6.698878 0.645964 -0.184820 0.740657 107 107 105 255
-0.699861 -0.052459 -6.697925 -0.012668 -0.243603 0.969792 102 103 99 255
-0.694115 -0.052569 -6.695279 0.121317 -0.474572 0.871817 106 106 104 255
-0.697001 -0.052267 -6.696612 0.697468 -0.297144 0.652107 105 105 100 255
-0.690482 -0.052082 -6.693616 0.314334 -0.374736 0.872220 104 105 102 255
-0.692875 -0.053497 -6.694693 0.197322 -0.466813 0.862061 116 116 109 255
-0.687751 -0.053701 -6.692332 -0.343963 -0.426365 0.836602 99 101 96 255
-0.687858 -0.053680 -6.692381 -0.346390 -0.417559 0.840035 100 102 97 255
-0.688504 -0.054663 -6.692662 -0.427007 -0.635931 0.642851 131 133 126 255
-0.688504 -0.054663 -6.692662 -0.427007 -0.635931 0.642851 131 133 126 255
-0.686473 -0.055264 -6.691718 -0.296495 -0.575883 0.761872 104 105 97 255
-0.677828 -0.057668 -6.687699 -0.123222 -0.353539 0.927268 86 87 80 255
-0.680498 -0.056079 -6.688954 -0.095656 -0.313853 0.944641 96 97 91 255
-0.674188 -0.058206 -6.686016 0.009716 -0.221000 0.975225 84 85 77 255
-0.675103 -0.057153 -6.686454 -0.411987 -0.535404 0.737299 97 97 90 255
-0.671665 -0.057325 -6.684870 -0.464859 -0.578745 0.670045 131 133 130 255
-0.669083 -0.059474 -6.683645 -0.002910 -0.181536 0.983380 73 74 67 255
-0.666208 -0.059585 -6.682321 0.041156 -0.107009 0.993406 60 61 58 255
-0.661965 -0.060719 -6.680349 -0.505655 -0.177157 0.844351 94 97 108 255
-0.654369 -0.063357 -6.676809 -0.229337 -0.368780 0.900781 118 122 129 255
-0.657900 -0.061959 -6.678458 -0.534823 -0.144203 0.832568 113 119 130 255
-0.647730 -0.063169 -6.673758 -0.371398 -0.203212 0.905963 117 120 124 255
-0.641857 -0.063057 -6.671058 0.100626 0.130897 0.986276 122 118 103 255
-0.639100 -0.063109 -6.669788 0.064067 0.124816 0.990109 107 102 90 255
-0.634478 -0.064604 -6.667636 -0.408271 0.243845 0.879690 134 133 132 255
-0.636078 -0.063397 -6.668393 -0.492873 -0.290188 0.820284 119 116 114 255
-0.631916 -0.064640 -6.666457 0.130690 0.026321 0.991074 135 133 116 255
-0.630111 -0.063927 -6.665639 0.647773 -0.141413 0.748593 112 107 81 255
-0.628533 -0.063218 -6.664925 0.749263 -0.224505 0.623058 86 81 60 255
-0.625838 -0.062218 -6.663702 0.436640 -0.515713 0.737147 30 30 23 255
-0.618531 -0.063469 -6.660318 -0.280155 -0.871251 0.403031 18 20 19 255
-0.610114 -0.068010 -6.656369 -0.300455 -0.726767 0.617686 17 20 19 255
-0.605782 -0.070650 -6.654331 -0.432534 -0.479416 0.763593 26 28 30 255
-0.603389 -0.070638 -6.653230 0.162849 -0.049162 0.985425 43 47 59 255
-0.604185 -0.068853 -6.653626 0.293625 -0.462851 0.836393 20 23 28 255
-0.600698 -0.070860 -6.651988 0.200516 -0.131093 0.970880 115 119 129 255
-0.601836 -0.068906 -6.652545 -0.252333 -0.214914 0.943472 44 47 60 255
-0.597993 -0.071171 -6.650739 0.211425 -0.191625 0.958425 130 133 133 255
-0.599255 -0.069007 -6.651356 0.199167 -0.156148 0.967445 124 127 134 255
-0.596274 -0.071928 -6.649935 -0.541275 -0.285150 0.791019 138 141 139 255
-0.596279 -0.069513 -6.649978 -0.474313 -0.291146 0.830820 130 132 131 255
-0.592388 -0.072846 -6.648131 -0.076154 -0.348637 0.934159 141 140 136 255
-0.590596 -0.072606 -6.647311 -0.460544 -0.322528 0.826968 144 141 128 255
-0.590847 -0.072172 -6.647434 -0.015338 -0.301269 0.953416 138 135 122 255
-0.588340 -0.072591 -6.646273 0.222788 -0.483919 0.846279 115 109 86 255
-0.586984 -0.070772 -6.645680 0.196299 -0.494785 0.846555 105 99 77 255
-0.586133 -0.072496 -6.645259 0.203449 -0.527741 0.824680 96 88 65 255
-0.585217 -0.070462 -6.644872 0.387231 -0.691233 0.610123 85 79 58 255
-0.584536 -0.070913 -6.644551 0.404495 -0.655727 0.637500 81 74 55 255
-0.581894 -0.071010 -6.643334 0.380211 -0.730425 0.567380 53 51 42 255
-0.578192 -0.070818 -6.641634 0.531996 -0.746157 0.400287 34 34 29 255
-0.579028 -0.071167 -6.642013 0.442705 -0.700436 0.559823 39 38 33 255
-0.579116 -0.069968 -6.642074 -0.144138 -0.568065 0.810263 33 33 29 255
-0.577111 -0.069032 -6.641167 -0.315733 -0.645754 0.695208 27 28 25 255
-0.573300 -0.068987 -6.639414 0.939469 -0.045767 0.339564 24 29 32 255
-0.553900 -0.079841 -6.630305 0.016529 0.250952 0.967859 47 53 60 255
-0.551384 -0.079025 -6.629161 0.386890 0.267312 0.882531 76 81 90 255
-0.544694 -0.081205 -6.626046 -0.513833 -0.548493 0.659645 147 152 153 255
-0.545721 -0.080480 -6.626531 -0.484912 -0.116688 0.866744 134 137 137 255
-0.538890 -0.079839 -6.623398 0.044852 0.128169 0.990738 149 147 137 255
-0.538041 -0.081741 -6.622976 0.379036 -0.246441 0.891963 149 147 140 255
-0.537133 -0.079125 -6.622602 -0.050173 0.149803 0.987442 132 127 112 255
-0.530512 -0.081418 -6.619517 0.018079 0.631912 0.774829 128 129 129 255
-0.527094 -0.080876 -6.617953 0.145785 0.307205 0.940410 115 117 120 255
-0.525789 -0.082715 -6.617322 0.312177 0.499355 0.808202 131 132 133 255
-0.520225 -0.086502 -6.614698 -0.534072 0.132297 0.835024 138 142 145 255
-0.517709 -0.086455 -6.613541 -0.310424 0.231148 0.922067 139 145 147 255
-0.516218 -0.086364 -6.612857 0.015299 0.230426 0.972970 131 135 137 255
-0.512008 -0.086897 -6.610911 -0.240381 0.501708 0.830967 140 147 151 255
-0.506062 -0.090986 -6.608106 -0.428667 -0.001723 0.903461 114 121 124 255
-0.507927 -0.088574 -6.609004 -0.208296 0.378615 0.901811 135 142 146 255
-0.504048 -0.090742 -6.607183 -0.513298 0.168309 0.841544 111 119 128 255
-0.502146 -0.090735 -6.606308 -0.558168 0.034821 0.828997 144 150 160 255
-0.499873 -0.089630 -6.605281 -0.549549 0.079876 0.831635 163 168 171 255
-0.499157 -0.090086 -6.604944 0.195448 0.272918 0.941974 159 163 163 255
-0.491719 -0.091231 -6.601502 -0.387169 -0.039821 0.921148 173 176 177 255
-0.490237 -0.093699 -6.600779 0.221198 0.143571 0.964603 167 169 170 255
-0.486914 -0.093376 -6.599255 0.870330 -0.076491 0.486492 169 165 151 255
-0.488885 -0.090941 -6.600203 -0.092816 0.456412 0.884914 180 180 177 255
-0.486009 -0.092300 -6.598857 0.037151 0.110124 0.993223 171 166 150 255
-0.480728 -0.092701 -6.596421 -0.513543 -0.195513 0.835493 158 158 158 255
-0.478279 -0.093136 -6.595286 -0.213674 0.000483 0.976905 157 159 159 255
-0.474993 -0.093418 -6.593770 0.578786 -0.069391 0.812522 155 153 144 255
-0.475237 -0.093228 -6.593885 0.612594 -0.063250 0.787863 149 148 138 255
-0.473793 -0.092376 -6.593235 0.831952 -0.033715 0.553823 127 122 106 255
-0.471321 -0.092778 -6.592091 0.228582 -0.298404 0.926664 89 85 72 255
-0.469361 -0.092020 -6.591202 0.549118 -0.084335 0.831479 68 65 60 255
-0.468019 -0.089732 -6.590623 0.337833 0.183291 0.923186 54 53 49 255
-0.449856 -0.098191 -6.582123 0.094293 -0.008847 0.995505 53 58 66 255
-0.452226 -0.097277 -6.583229 0.087452 0.662169 0.744234 56 61 66 255
-0.444130 -0.099006 -6.579475 -0.596152 0.093672 0.797389 148 159 169 255
-0.446787 -0.097958 -6.580715 0.253516 0.014832 0.967217 136 149 166 255
-0.444254 -0.098206 -6.579545 -0.626227 0.058017 0.777479 150 161 171 255
-0.439840 -0.099244 -6.577497 0.129623 -0.288032 0.948807 171 178 184 255
-0.436045 -0.100092 -6.575737 0.054341 -0.132825 0.989649 165 167 161 255
-0.436309 -0.098681 -6.575882 0.818343 -0.067364 0.570768 162 164 159 255
-0.434158 -0.098729 -6.574892 0.459584 -0.071265 0.885270 133 130 118 255
-0.408347 -0.131239 -6.562466 -0.080963 0.136196 0.987368 80 83 89 255
-0.406236 -0.131366 -6.561493 0.476041 0.269216 0.837202 115 115 123 255
-0.406695 -0.131089 -6.561708 -0.081936 0.131051 0.987984 110 111 118 255
-0.404931 -0.131014 -6.560898 -0.073380 0.068497 0.994949 180 180 186 255
-0.402548 -0.132503 -6.559777 -0.074798 0.062713 0.995225 239 240 239 255
-0.404194 -0.132627 -6.560532 -0.067773 0.053737 0.996253 190 190 194 255
-0.403408 -0.132149 -6.560178 -0.121052 0.028639 0.992233 230 229 229 255
-0.399439 -0.133126 -6.558336 -0.561819 0.000765 0.827260 219 219 218 255
-0.402479 -0.130627 -6.559776 -0.126908 0.132023 0.983089 233 234 231 255
-0.400972 -0.119310 -6.559274 0.582939 0.100560 0.806269 212 209 200 255
-0.400825 -0.120109 -6.559193 0.824065 -0.081869 0.560548 216 213 206 255
-0.392618 -0.134476 -6.555174 -0.316599 -0.536838 0.782030 182 181 176 255
-0.396395 -0.118333 -6.557185 0.325856 0.058845 0.943586 53 53 47 255
-0.395732 -0.108685 -6.557043 0.425450 0.428561 0.797074 38 42 46 255
-0.393309 -0.108178 -6.555937 -0.144549 0.395603 0.906975 104 110 118 255
-0.390995 -0.108149 -6.554873 0.280893 0.144479 0.948802 138 143 146 255
-0.388389 -0.108777 -6.553663 0.445220 0.393180 0.804480 141 144 145 255
-0.381262 -0.108282 -6.550392 0.807923 -0.077976 0.584106 136 133 124 255
-0.376862 -0.106500 -6.548398 0.331023 -0.080384 0.940192 79 75 67 255
-0.374660 -0.106584 -6.547383 0.315680 -0.037413 0.948128 65 63 59 255
-0.372160 -0.106996 -6.546226 -0.478539 -0.188736 0.857543 36 37 35 255
-0.370361 -0.106816 -6.545402 -0.384142 -0.052954 0.921754 34 38 37 255
-0.369508 -0.106873 -6.545008 -0.489863 -0.127960 0.862357 37 41 41 255
-0.361491 -0.115347 -6.541176 -0.587419 0.204890 0.782917 56 59 60 255
-0.360659 -0.113302 -6.540828 -0.428425 -0.036824 0.902827 43 46 45 255
-0.359830 -0.114429 -6.540428 -0.617274 0.160867 0.770127 47 51 52 255
-0.356319 -0.114217 -6.538815 0.233059 -0.144072 0.961731 43 47 50 255
-0.353970 -0.114311 -6.537733 0.097981 -0.292890 0.951112 83 86 91 255
-0.350961 -0.115758 -6.536325 -0.655225 -0.025002 0.755020 141 146 152 255
-0.345888 -0.118550 -6.533943 -0.023643 0.062264 0.997780 160 161 162 255
-0.343739 -0.118084 -6.532962 0.067447 -0.033988 0.997144 175 173 169 255
-0.337815 -0.121148 -6.530184 0.050098 -0.036021 0.998095 176 174 170 255
-0.334999 -0.122087 -6.528873 0.408553 -0.068202 0.910183 174 172 168 255
-0.333245 -0.121665 -6.528073 0.308830 0.004261 0.951108 177 174 169 255
-0.331120 -0.121694 -6.527095 0.309646 -0.015892 0.950719 184 181 175 255
-0.330045 -0.119705 -6.526634 0.387566 0.003724 0.921835 170 169 164 255
-0.326924 -0.122067 -6.525158 -0.682324 -0.169944 0.711023 182 187 191 255
-0.324906 -0.122293 -6.524226 -0.064440 0.010939 0.997862 162 165 166 255
-0.322803 -0.122475 -6.523255 0.205078 -0.010356 0.978691 178 179 175 255
-0.320701 -0.122524 -6.522287 0.140396 -0.012383 0.990018 172 172 168 255
-0.318716 -0.122441 -6.521375 -0.100074 0.020862 0.994761 161 163 163 255
-0.315412 -0.122978 -6.519846 0.452985 0.027956 0.891080 177 176 170 255
-0.314336 -0.121088 -6.519383 0.728601 0.031101 0.684232 171 168 156 255
-0.313362 -0.122530 -6.518910 0.263021 -0.064839 0.962609 162 158 147 255
-0.312285 -0.120623 -6.518447 0.636620 0.002534 0.771174 149 144 134 255
-0.784794 -0.039689 -6.737219 -0.026531 -0.816959 0.576085 82 82 82 255
-0.784794 -0.039689 -6.737219 -0.026531 -0.816959 0.576085 82 82 82 255
-0.784794 -0.039689 -6.737219 -0.026531 -0.816959 0.576085 82 82 82 255
-0.771581 -0.043119 -6.731081 0.239262 -0.839126 0.488488 72 74 74 255
-0.764880 -0.043975 -6.727983 -0.031488 -0.072305 0.996885 68 69 67 255
-0.756540 -0.045102 -6.724128 -0.312160 -0.330959 0.890518 65 66 62 255
-0.751879 -0.044857 -6.721987 -0.054218 -0.411147 0.909955 46 47 44 255
-0.741984 -0.048369 -6.717375 -0.290636 0.178963 0.939948 88 87 86 255
-0.730586 -0.053655 -6.712041 -0.350195 -0.385095 0.853853 99 98 97 255
-0.735398 -0.049428 -6.714327 0.067860 -0.171877 0.982778 91 91 90 255
-0.730194 -0.049926 -6.711924 0.061403 -0.069199 0.995711 86 86 83 255
-0.723776 -0.052799 -6.708923 -0.016646 -0.501550 0.864968 87 88 84 255
-0.719407 -0.051868 -6.706928 -0.063300 -0.567858 0.820689 86 87 85 255
-0.715515 -0.053749 -6.705106 -0.036265 -0.526302 0.849524 93 94 93 255
-0.708175 -0.054731 -6.701712 -0.385576 0.104757 0.916710 116 116 116 255
-0.699463 -0.056251 -6.697678 0.647511 -0.197638 0.735981 126 126 122 255
-0.695026 -0.054790 -6.695661 0.404891 -0.085982 0.910313 95 95 84 255
-0.685674 -0.056146 -6.691335 -0.432345 -0.271282 0.859932 76 77 68 255
-0.682229 -0.058310 -6.689713 -0.434067 -0.368858 0.821906 38 38 33 255
-0.682199 -0.058310 -6.689700 -0.197871 -0.533119 0.822576 36 36 31 255
-0.676951 -0.059678 -6.687262 -0.143756 -0.339505 0.929554 35 35 30 255
-0.671113 -0.061381 -6.684547 0.013228 -0.256861 0.966358 33 34 28 255
-0.666190 -0.060561 -6.682296 0.125140 0.058933 0.990387 39 40 47 255
-0.661600 -0.063288 -6.680138 -0.516093 -0.181322 0.837120 98 101 113 255
-0.656577 -0.064915 -6.677799 -0.506999 -0.179090 0.843137 135 139 147 255
-0.652299 -0.065803 -6.675816 -0.501938 -0.164349 0.849145 140 144 146 255
-0.648346 -0.066747 -6.673981 -0.440315 0.230166 0.867840 149 154 158 255
-0.646308 -0.066255 -6.673051 -0.435407 -0.166951 0.884617 145 148 147 255
-0.640381 -0.065473 -6.670338 0.212956 0.216693 0.952730 123 118 102 255
-0.639234 -0.067594 -6.669775 0.341975 -0.262199 0.902388 122 118 105 255
-0.637831 -0.065344 -6.669167 -0.471426 0.084430 0.877855 113 109 103 255
-0.629382 -0.067175 -6.665248 0.826412 -0.099013 0.554292 113 104 79 255
-0.628309 -0.066437 -6.664767 0.728367 -0.037106 0.684181 103 95 72 255
-0.625823 -0.065659 -6.663637 -0.339283 0.062236 0.938623 60 58 43 255
-0.619609 -0.064806 -6.660792 -0.558868 -0.189130 0.807401 21 23 23 255
-0.609732 -0.070172 -6.656157 -0.463732 -0.503573 0.728949 30 32 32 255
-0.616466 -0.066568 -6.659316 -0.531112 -0.529692 0.661321 39 42 45 255
-0.609308 -0.073058 -6.655912 -0.128133 -0.569641 0.811845 35 36 36 255
-0.610471 -0.070183 -6.656496 -0.495615 -0.511381 0.702037 23 26 25 255
-0.608940 -0.070283 -6.655790 -0.462970 -0.515294 0.721201 28 30 31 255
-0.604748 -0.072630 -6.653822 0.215668 -0.158543 0.963510 41 44 53 255
-0.602186 -0.072744 -6.652641 0.101836 -0.036704 0.994124 97 101 114 255
-0.599559 -0.072909 -6.651430 -0.134295 -0.004451 0.990931 127 130 134 255
-0.594594 -0.075083 -6.649108 0.242616 0.242228 0.939395 135 136 132 255
-0.592981 -0.073302 -6.648396 -0.512552 -0.166543 0.842350 142 142 137 255
-0.589669 -0.074397 -6.646854 0.227468 -0.317438 0.920593 125 119 96 255
-0.592372 -0.074061 -6.648104 -0.251323 -0.301528 0.919738 141 138 127 255
-0.587109 -0.074955 -6.645667 -0.060113 -0.344664 0.936800 109 99 75 255
-0.584176 -0.075929 -6.644301 0.254557 -0.269366 0.928786 95 86 64 255
-0.584625 -0.072604 -6.644564 0.571695 -0.603159 0.556205 75 69 54 255
-0.585011 -0.073940 -6.644719 0.152920 -0.644549 0.749114 80 73 56 255
-0.577199 -0.072271 -6.641152 -0.126572 -0.930066 0.344900 23 24 23 255
-0.575499 -0.072129 -6.640373 -0.105495 -0.541470 0.834075 22 23 23 255
-0.570108 -0.073445 -6.637870 0.969932 0.077028 0.230863 47 52 55 255
-0.555722 -0.081773 -6.631110 0.250677 0.436575 0.864039 45 50 53 255
-0.553387 -0.081516 -6.630040 0.016093 0.330695 0.943600 47 53 60 255
-0.549779 -0.081323 -6.628384 0.344524 0.484955 0.803817 125 128 133 255
-0.541713 -0.082711 -6.624649 -0.093129 -0.776692 0.622958 138 139 137 255
-0.544790 -0.082785 -6.626063 -0.437623 0.097304 0.893878 136 139 137 255
-0.538460 -0.084416 -6.623123 0.472463 -0.064963 0.878953 141 142 138 255
-0.536020 -0.084611 -6.621997 0.293429 0.161809 0.942187 138 138 134 255
-0.533491 -0.084663 -6.620832 0.271851 0.357954 0.893290 127 128 125 255
-0.535620 -0.082262 -6.621853 -0.122858 0.581185 0.804444 145 144 138 255
-0.532140 -0.082413 -6.620249 0.591530 0.587627 0.552075 119 118 114 255
-0.532518 -0.083016 -6.620413 0.097041 -0.271646 0.957492 113 113 110 255
-0.528726 -0.086099 -6.618616 0.305661 0.663601 0.682792 105 105 103 255
-0.526375 -0.085576 -6.617543 -0.096018 0.302202 0.948396 120 122 120 255
-0.520242 -0.088276 -6.614676 -0.585124 -0.222865 0.779719 125 128 128 255
-0.516007 -0.089054 -6.612714 -0.198357 0.369590 0.907776 141 148 149 255
-0.515942 -0.089804 -6.612671 0.074608 0.662446 0.745385 113 116 115 255
-0.517026 -0.090234 -6.613163 0.082018 0.664776 0.742527 96 99 99 255
-0.509724 -0.090247 -6.609803 0.138513 0.641775 0.754281 115 120 123 255
-0.507619 -0.092719 -6.608793 -0.426065 -0.019303 0.904487 96 102 104 255
-0.505159 -0.092824 -6.607659 -0.131501 0.084680 0.987693 96 102 107 255
-0.502648 -0.092971 -6.606501 -0.035827 -0.138338 0.989737 118 124 135 255
-0.500379 -0.092304 -6.605469 -0.572445 -0.010037 0.819881 165 170 175 255
-0.483787 -0.094182 -6.597803 -0.405295 0.013031 0.914093 146 141 130 255
-0.481523 -0.094074 -6.596763 -0.464762 -0.070571 0.882619 150 148 147 255
-0.478308 -0.095754 -6.595255 0.548295 -0.131005 0.825960 146 148 145 255
-0.478212 -0.096150 -6.595205 -0.003045 0.022854 0.999734 147 150 148 255
-0.476132 -0.095345 -6.594261 0.541388 -0.114679 0.832915 143 142 135 255
-0.472601 -0.094424 -6.592652 0.272149 -0.121689 0.954530 101 97 82 255
-0.470482 -0.094243 -6.591680 0.466471 -0.063881 0.882227 80 77 69 255
-0.468531 -0.092738 -6.590808 0.281630 -0.443479 0.850888 58 56 52 255
-0.463957 -0.092549 -6.588706 0.304355 0.155654 0.939755 43 46 47 255
-0.461321 -0.092687 -6.587492 -0.079736 0.012056 0.996743 56 63 65 255
-0.450061 -0.100482 -6.582179 -0.138242 -0.260874 0.955423 50 56 61 255
-0.450757 -0.100497 -6.582499 0.158721 0.147623 0.976225 51 57 61 255
-0.447865 -0.099962 -6.581177 0.616054 -0.007938 0.787664 87 98 116 255
-0.448712 -0.100057 -6.581565 0.240098 -0.523413 0.817553 59 68 84 255
-0.445781 -0.099688 -6.580223 0.213794 0.005392 0.976864 143 156 168 255
-0.443446 -0.100418 -6.579136 -0.620974 -0.285656 0.729926 151 160 168 255
-0.440879 -0.101129 -6.577943 -0.353072 -0.019891 0.935385 173 180 186 255
-0.439800 -0.103195 -6.577412 -0.208413 -0.104624 0.972429 168 177 185 255
-0.438823 -0.100877 -6.577002 0.248776 -0.044344 0.967545 170 176 182 255
-0.436344 -0.102616 -6.575831 0.280119 0.052318 0.958539 168 169 163 255
-0.434456 -0.100928 -6.574992 0.662938 -0.073648 0.745043 140 137 126 255
-0.406572 -0.134439 -6.561595 -0.055621 0.028080 0.998057 97 98 104 255
-0.407492 -0.132833 -6.562046 -0.067612 0.096996 0.992986 88 89 96 255
-0.404649 -0.134481 -6.560710 0.605331 0.236057 0.760166 150 150 156 255
-0.405778 -0.132706 -6.561259 -0.061630 0.054874 0.996589 131 132 139 255
-0.403381 -0.134152 -6.560132 -0.056929 -0.007304 0.998351 201 200 201 255
-0.400209 -0.135213 -6.558655 -0.559939 0.011624 0.828452 197 197 199 255
-0.401313 -0.134301 -6.559178 -0.453975 -0.046801 0.889784 228 230 228 255
-0.399198 -0.135735 -6.558181 -0.576165 -0.068506 0.814457 211 211 211 255
-0.400947 -0.122324 -6.559212 0.649341 0.046381 0.759082 212 210 201 255
-0.400941 -0.122957 -6.559198 0.766109 0.024723 0.642236 216 213 205 255
-0.399219 -0.121609 -6.558429 0.806064 0.005789 0.591799 204 202 187 255
-0.395884 -0.122185 -6.556885 0.899204 -0.118803 0.421092 66 65 56 255
-0.394779 -0.110339 -6.556577 -0.029974 0.225014 0.973894 49 53 60 255
-0.391833 -0.110748 -6.555214 0.437584 0.509728 0.740741 129 134 140 255
-0.389146 -0.111558 -6.553964 -0.655633 -0.116886 0.745978 151 155 156 255
-0.386790 -0.110932 -6.552891 0.007580 0.630527 0.776130 142 144 145 255
-0.385700 -0.112943 -6.552355 -0.081409 -0.235702 0.968410 128 130 130 255
-0.384745 -0.111215 -6.551945 0.550468 0.139848 0.823060 147 149 149 255
-0.383712 -0.112913 -6.551441 0.751790 -0.382511 0.537119 134 135 132 255
-0.381381 -0.111320 -6.550395 0.781263 -0.123540 0.611854 139 137 127 255
-0.379609 -0.109897 -6.549604 0.766707 -0.029924 0.641299 115 111 100 255
-0.377865 -0.108795 -6.548820 0.301240 -0.098587 0.948438 85 81 72 255
-0.376885 -0.110640 -6.548338 0.566900 -0.096421 0.818124 78 74 67 255
-0.374917 -0.109627 -6.547450 0.569410 -0.295092 0.767263 76 73 69 255
-0.372907 -0.108848 -6.546538 -0.274333 -0.067885 0.959236 48 47 45 255
-0.369635 -0.111022 -6.544996 -0.492457 0.183820 0.850703 77 77 79 255
-0.363802 -0.116082 -6.542227 -0.668980 0.069662 0.740009 76 78 80 255
-0.361237 -0.116525 -6.541039 -0.551267 0.289473 0.782503 78 79 81 255
-0.356967 -0.116973 -6.539067 -0.214039 -0.105982 0.971059 62 64 67 255
-0.354473 -0.117167 -6.537916 -0.224480 -0.084182 0.970836 89 92 97 255
-0.352537 -0.117218 -6.537025 -0.605869 0.209045 0.767609 143 148 153 255
-0.350332 -0.117810 -6.536000 -0.788431 -0.005219 0.615102 151 158 165 255
-0.346757 -0.120263 -6.534314 0.272669 -0.049440 0.960837 146 147 149 255
-0.344694 -0.120222 -6.533365 0.126210 -0.067589 0.989698 173 172 169 255
-0.343809 -0.122221 -6.532924 -0.312400 -0.025005 0.949621 177 175 172 255
-0.334218 -0.123673 -6.528487 0.361888 0.006299 0.932200 175 173 169 255
-0.332161 -0.123642 -6.527541 0.286278 -0.032269 0.957603 186 184 178 255
-0.330084 -0.123630 -6.526586 0.344920 0.020074 0.938417 170 168 163 255
-0.325881 -0.123667 -6.524651 -0.771926 -0.136762 0.620827 187 194 201 255
-0.323859 -0.124323 -6.523710 0.203258 -0.084671 0.975457 166 168 167 255
-0.323892 -0.124120 -6.523728 0.188277 -0.076807 0.979108 168 169 169 255
-0.321798 -0.124316 -6.522762 0.246432 -0.078050 0.966012 180 179 174 255
-0.319782 -0.124664 -6.521828 -0.269645 -0.070634 0.960366 165 166 164 255
-0.317280 -0.123886 -6.520690 0.094879 -0.044307 0.994502 164 164 165 255
-0.315264 -0.123780 -6.519764 -0.069703 -0.019900 0.997369 178 176 169 255
-0.312360 -0.123152 -6.518439 0.438668 -0.010229 0.898591 148 144 134 255
-0.770579 -0.046562 -6.730562 0.059908 -0.393542 0.917353 90 90 89 255
-0.762631 -0.048912 -6.726866 -0.344012 0.021882 0.938710 92 91 89 255
-0.763081 -0.049028 -6.727071 -0.345716 -0.120682 0.930546 93 92 90 255
-0.754006 -0.049203 -6.722892 -0.326243 -0.394225 0.859158 91 91 89 255
-0.748339 -0.049346 -6.720283 -0.124714 0.429967 0.894190 92 91 90 255
-0.728713 -0.053571 -6.711181 -0.020410 -0.505510 0.862579 87 87 81 255
-0.719085 -0.055019 -6.706727 0.000006 -0.462568 0.886584 91 91 89 255
-0.712990 -0.055046 -6.703922 0.352735 -0.043438 0.934715 106 107 108 255
-0.696070 -0.057320 -6.696098 0.212518 -0.286056 0.934349 89 90 75 255
-0.692509 -0.058004 -6.694448 -0.251121 0.056418 0.966310 28 28 18 255
-0.691294 -0.058565 -6.693880 0.408826 0.065933 0.910228 24 25 18 255
-0.686936 -0.057856 -6.691886 0.312837 -0.492910 0.811895 27 28 24 255
-0.680935 -0.061709 -6.689061 -0.444343 -0.675976 0.587892 23 25 24 255
-0.687619 -0.058595 -6.692188 -0.381779 -0.755832 0.531943 22 24 23 255
-0.675950 -0.063238 -6.686741 -0.180089 -0.887233 0.424719 28 29 27 255
-0.669006 -0.063794 -6.683537 -0.436076 -0.265572 0.859831 22 23 21 255
-0.667634 -0.064266 -6.682898 -0.476626 -0.469468 0.743255 23 24 24 255
-0.668224 -0.064912 -6.683158 -0.056719 -0.923715 0.378859 23 24 24 255
-0.661931 -0.066105 -6.680242 -0.515073 -0.100174 0.851273 103 105 116 255
-0.662362 -0.065563 -6.680450 -0.502147 -0.275007 0.819890 97 98 110 255
-0.659497 -0.066841 -6.679110 -0.497727 -0.100248 0.861521 129 131 140 255
-0.656067 -0.067430 -6.677522 -0.059448 -0.226975 0.972085 143 145 151 255
-0.653082 -0.067574 -6.676146 -0.229557 -0.178733 0.956743 145 147 147 255
-0.646393 -0.069460 -6.673037 -0.444643 -0.642302 0.624293 168 172 174 255
-0.650561 -0.067502 -6.674987 -0.286142 -0.113306 0.951464 145 147 145 255
-0.643648 -0.069244 -6.671777 0.678957 -0.255576 0.688257 150 150 143 255
-0.640306 -0.069836 -6.670229 0.345696 -0.118018 0.930895 137 132 115 255
-0.635248 -0.069348 -6.667911 -0.489976 0.012137 0.871652 138 137 134 255
-0.630525 -0.069465 -6.665736 0.467089 -0.008505 0.884169 119 112 89 255
-0.627429 -0.067802 -6.664339 0.661993 -0.125613 0.738909 88 81 62 255
-0.624352 -0.069619 -6.662893 0.117174 0.107919 0.987230 62 59 48 255
-0.622958 -0.066914 -6.662297 0.278785 0.335435 0.899868 37 37 31 255
-0.619402 -0.069942 -6.660610 -0.513605 -0.078197 0.854456 33 33 30 255
-0.621471 -0.068109 -6.661592 -0.465532 -0.500646 0.729818 34 34 31 255
-0.611862 -0.072182 -6.657103 -0.522288 -0.150900 0.839312 37 40 41 255
-0.606004 -0.074647 -6.654366 0.428346 -0.428480 0.795565 38 41 44 255
-0.608714 -0.073432 -6.655633 -0.536397 -0.046109 0.842705 46 50 52 255
-0.603481 -0.074789 -6.653202 0.158925 -0.027817 0.986899 77 80 93 255
-0.600541 -0.075148 -6.651844 -0.122929 -0.157802 0.979789 126 129 135 255
-0.595938 -0.076645 -6.649701 -0.510340 -0.257529 0.820507 143 142 134 255
-0.593451 -0.076109 -6.648565 -0.057837 -0.126490 0.990280 142 141 131 255
-0.591019 -0.076272 -6.647444 -0.013657 -0.283262 0.958945 134 129 110 255
-0.588673 -0.076485 -6.646360 0.307207 -0.344220 0.887207 114 105 80 255
-0.582760 -0.074716 -6.643670 0.503934 -0.535501 0.677709 59 55 46 255
-0.580891 -0.074993 -6.642805 0.627349 -0.472193 0.619248 43 42 37 255
-0.576966 -0.074033 -6.641016 -0.415827 -0.337107 0.844658 32 35 36 255
-0.571560 -0.075284 -6.638507 -0.492943 -0.139468 0.858811 52 56 58 255
-0.568102 -0.076769 -6.636891 -0.523298 -0.217036 0.824048 48 51 53 255
-0.553285 -0.084161 -6.629949 -0.216430 0.323988 0.920972 55 59 66 255
-0.548738 -0.083205 -6.627872 0.134489 -0.380216 0.915067 141 145 146 255
-0.549686 -0.085536 -6.628269 0.267701 0.116954 0.956377 98 102 105 255
-0.546085 -0.086029 -6.626604 -0.221318 0.167708 0.960673 97 99 98 255
-0.540183 -0.085460 -6.623899 -0.386059 -0.424442 0.819028 128 129 126 255
-0.536549 -0.087195 -6.622197 0.577862 -0.043461 0.814976 100 101 96 255
-0.534114 -0.086946 -6.621080 0.533211 -0.107341 0.839145 114 115 112 255
-0.528001 -0.089156 -6.618231 -0.155008 -0.245008 0.957049 86 87 86 255
-0.525715 -0.088645 -6.617188 0.204223 -0.331149 0.921213 94 95 93 255
-0.525963 -0.088337 -6.617307 0.014764 0.630051 0.776413 94 95 94 255
-0.523107 -0.088946 -6.615983 0.214878 -0.316091 0.924075 90 92 90 255
-0.524782 -0.088277 -6.616765 0.007973 0.622587 0.782510 96 97 95 255
-0.519888 -0.090364 -6.614478 -0.561636 0.040367 0.826399 96 99 102 255
-0.520394 -0.089321 -6.614728 -0.024399 -0.308062 0.951054 89 92 92 255
-0.512927 -0.093374 -6.611224 -0.061216 0.569405 0.819775 85 88 88 255
-0.510154 -0.093188 -6.609951 0.077797 0.451440 0.888903 89 94 96 255
-0.507792 -0.095438 -6.608826 -0.152030 -0.300428 0.941610 89 95 97 255
-0.505634 -0.095396 -6.607834 -0.013378 -0.014010 0.999812 84 90 93 255
-0.501432 -0.094922 -6.605909 -0.124647 -0.080679 0.988916 148 152 161 255
-0.498819 -0.094871 -6.604707 -0.068112 -0.173399 0.982494 161 164 164 255
-0.489147 -0.096808 -6.600225 0.727395 -0.085804 0.680833 165 166 163 255
-0.486378 -0.096902 -6.598949 0.826800 0.109110 0.551812 163 159 143 255
-0.482662 -0.096147 -6.597252 -0.387881 -0.098185 0.916465 139 136 130 255
-0.480456 -0.096129 -6.596238 -0.400638 0.020956 0.915997 148 147 147 255
-0.481459 -0.098243 -6.596663 -0.474059 -0.063129 0.878227 142 140 139 255
-0.481611 -0.098175 -6.596734 -0.483694 -0.084709 0.871128 141 140 139 255
-0.478679 -0.098362 -6.595382 0.444756 -0.031119 0.895111 146 148 146 255
-0.475222 -0.097050 -6.593813 0.671189 -0.083268 0.736595 143 140 130 255
-0.475974 -0.098344 -6.594138 0.569549 -0.102533 0.815537 142 142 136 255
-0.472072 -0.096543 -6.592373 0.817285 -0.009501 0.576156 108 103 88 255
-0.470541 -0.097201 -6.591657 0.630193 -0.029669 0.775871 77 74 64 255
-0.469412 -0.094812 -6.591178 0.606347 -0.072101 0.791925 69 67 62 255
-0.467710 -0.094095 -6.590407 0.248917 0.209643 0.945563 50 50 47 255
-0.465084 -0.094561 -6.589191 0.178750 0.016414 0.983758 33 34 34 255
-0.463133 -0.095279 -6.588281 -0.279163 0.057045 0.958548 55 58 60 255
-0.460703 -0.096236 -6.587147 -0.473093 0.332037 0.816048 56 61 63 255
-0.462033 -0.094587 -6.587787 -0.559653 0.196516 0.805090 54 59 62 255
-0.453083 -0.100985 -6.583560 -0.589821 -0.326595 0.738544 54 60 62 255
-0.456526 -0.098643 -6.585185 -0.717325 -0.184208 0.671947 58 63 70 255
-0.450986 -0.102796 -6.582565 0.119203 -0.016885 0.992726 48 54 58 255
-0.448226 -0.102600 -6.581299 0.551260 -0.054701 0.832538 78 87 105 255
-0.442204 -0.103179 -6.578518 -0.371206 0.181007 0.910737 162 173 180 255
-0.443488 -0.103579 -6.579103 -0.624371 -0.021693 0.780827 151 162 170 255
-0.440699 -0.105157 -6.577792 -0.188615 0.014300 0.981947 156 168 178 255
-0.437282 -0.104593 -6.576230 0.605484 -0.007354 0.795824 171 174 171 255
-0.434758 -0.104863 -6.575064 0.711241 0.125080 0.691730 152 150 140 255
-0.432870 -0.103026 -6.574226 0.702245 0.024973 0.711498 125 121 113 255
-0.405720 -0.135968 -6.561178 -0.038013 -0.052743 0.997884 107 108 114 255
-0.404062 -0.135866 -6.560416 -0.045773 -0.042269 0.998057 159 159 165 255
-0.402524 -0.135690 -6.559712 -0.042265 -0.090978 0.994956 205 204 206 255
-0.401396 -0.135408 -6.559197 -0.093545 -0.024779 0.995307 235 235 234 255
-0.399183 -0.124657 -6.558361 0.752825 0.006998 0.658183 204 203 188 255
-0.397739 -0.122843 -6.557727 0.900868 -0.101212 0.422130 111 110 90 255
-0.393577 -0.124371 -6.555786 0.408273 0.188090 0.893272 52 52 52 255
-0.394159 -0.121488 -6.556103 0.172451 0.635459 0.752631 44 46 47 255
-0.395887 -0.112402 -6.557052 0.408920 0.008721 0.912529 39 42 45 255
-0.391770 -0.113145 -6.555145 0.054735 -0.363969 0.929802 103 106 111 255
-0.389515 -0.113418 -6.554102 -0.451223 -0.206982 0.868076 116 119 121 255
-0.386474 -0.114727 -6.552681 -0.419273 -0.240583 0.875403 116 117 118 255
-0.388044 -0.112548 -6.553441 -0.313811 -0.087282 0.945465 129 131 132 255
-0.379901 -0.113191 -6.549683 0.809376 -0.014320 0.587116 121 117 106 255
-0.371640 -0.111272 -6.545915 -0.495806 0.174331 0.850756 73 72 70 255
-0.370134 -0.111910 -6.545211 -0.412255 -0.255214 0.874592 79 77 77 255
-0.367061 -0.113952 -6.543762 -0.538522 0.205587 0.817147 94 93 94 255
-0.368070 -0.112069 -6.544259 -0.415272 -0.226114 0.881148 80 80 81 255
-0.360403 -0.118139 -6.540628 -0.264886 -0.006519 0.964258 75 76 76 255
-0.357952 -0.118641 -6.539492 -0.127919 -0.141817 0.981593 68 69 70 255
-0.355821 -0.118776 -6.538509 -0.436596 -0.089218 0.895223 69 71 75 255
-0.353372 -0.118683 -6.537384 -0.167079 -0.013328 0.985853 132 136 142 255
-0.351599 -0.119262 -6.536559 -0.692118 -0.102349 0.714491 150 156 162 255
-0.346406 -0.124020 -6.534089 -0.481296 -0.007425 0.876527 167 167 167 255
-0.347500 -0.122382 -6.534620 -0.235761 0.008396 0.971775 135 137 140 255
-0.345742 -0.122086 -6.533816 -0.160147 -0.050966 0.985777 168 168 168 255
-0.345645 -0.122241 -6.533769 -0.325390 -0.135925 0.935759 171 171 171 255
-0.344559 -0.124014 -6.533239 -0.242986 -0.063837 0.967927 174 173 170 255
-0.335125 -0.125769 -6.528869 0.321401 -0.071737 0.944222 175 172 168 255
-0.333224 -0.125534 -6.527998 0.365946 -0.002184 0.930634 179 176 171 255
-0.331159 -0.125509 -6.527049 0.356604 0.004154 0.934246 183 180 173 255
-0.328709 -0.125901 -6.525915 -0.150101 0.007459 0.988643 164 164 162 255
-0.328379 -0.126100 -6.525759 -0.281113 0.050135 0.958364 165 165 164 255
-0.324898 -0.125966 -6.524160 -0.032614 -0.080317 0.996236 164 166 167 255
-0.322863 -0.126156 -6.523221 0.214486 -0.082126 0.973268 179 179 175 255
-0.320803 -0.126182 -6.522272 0.248586 -0.090922 0.964333 171 171 167 255
-0.318827 -0.126548 -6.521357 -0.362710 -0.049806 0.930570 165 168 168 255
-0.316276 -0.125537 -6.520200 0.102808 -0.076036 0.991791 173 172 170 255
-0.313188 -0.125275 -6.518784 0.601634 0.001869 0.798769 160 156 144 255
-0.776174 -0.046227 -6.733142 0.310921 0.480180 0.820217 99 99 98 255
-0.739998 -0.053829 -6.716369 -0.349115 -0.264016 0.899118 105 104 99 255
-0.733670 -0.054765 -6.713441 0.022927 -0.414841 0.909605 116 118 110 255
-0.724243 -0.055672 -6.709089 0.056468 -0.243520 0.968251 60 60 55 255
-0.721627 -0.058852 -6.707831 -0.294861 0.105413 0.949708 31 30 27 255
-0.721706 -0.057322 -6.707894 -0.166802 0.378361 0.910505 44 43 39 255
-0.722220 -0.055175 -6.708167 0.038229 0.524203 0.850735 71 71 69 255
-0.715461 -0.057284 -6.705021 -0.349656 -0.208027 0.913491 85 84 84 255
-0.711841 -0.057578 -6.703351 -0.294690 0.108891 0.949368 112 112 113 255
-0.703960 -0.058066 -6.699716 -0.394183 0.041031 0.918116 143 144 145 255
-0.695291 -0.061211 -6.695674 0.068229 0.245271 0.967051 120 120 104 255
-0.692425 -0.061061 -6.694358 0.138922 0.243449 0.959913 64 64 49 255
-0.689969 -0.060986 -6.693229 -0.399913 -0.011000 0.916487 25 25 21 255
-0.685954 -0.059957 -6.691399 0.991649 0.062510 0.112808 16 18 16 255
-0.666468 -0.070344 -6.682258 -0.259150 -0.864272 0.431132 20 22 21 255
-0.668696 -0.068242 -6.683319 -0.271315 -0.856023 0.440014 38 41 47 255
-0.668696 -0.068242 -6.683319 -0.271315 -0.856023 0.440014 37 41 45 255
-0.668997 -0.067373 -6.683472 -0.284465 -0.847795 0.447575 38 42 48 255
-0.668577 -0.064959 -6.683320 -0.490015 -0.351706 0.797614 25 26 32 255
-0.658845 -0.068943 -6.678774 -0.039272 -0.199102 0.979192 135 136 144 255
-0.661455 -0.068962 -6.679975 -0.321841 -0.145770 0.935505 81 82 95 255
