ply
format ascii 1.0
element vertex 656
property float x
property float y
property float z
property float nx
property float ny
property float nz
property uchar red
property uchar green
property uchar blue
property uchar alpha
end_header
-0.389096 0.064192 -6.558358 -0.525250 -0.032114 0.850342 135 136 129 255
-0.389889 0.065760 -6.558752 0.435943 0.269107 0.858798 142 144 143 255
-0.386734 0.063936 -6.557270 -0.265836 -0.055616 0.962413 122 123 119 255
-0.348515 0.051273 -6.539495 0.418386 -0.112817 0.901235 35 35 36 255
-0.339332 0.048520 -6.535230 -0.638006 0.096296 0.763986 163 166 167 255
-0.336525 0.047802 -6.533929 -0.653914 -0.098288 0.750157 151 149 148 255
-0.334818 0.044845 -6.533089 -0.306448 0.009438 0.951841 152 152 152 255
-0.332228 0.044586 -6.531896 -0.241200 0.001921 0.970474 176 175 172 255
-0.329615 0.045726 -6.530719 -0.676931 0.147800 0.721055 199 200 201 255
-0.322865 0.040851 -6.527529 -0.122633 0.110141 0.986321 183 184 183 255
-0.324171 0.043462 -6.528179 -0.148831 -0.095650 0.984226 183 183 181 255
-0.321455 0.043462 -6.526933 -0.266397 -0.024316 0.963556 169 172 173 255
-0.318850 0.040042 -6.525672 -0.490656 0.077062 0.867939 166 172 178 255
-0.316598 0.040220 -6.524643 -0.406095 0.006681 0.913806 167 173 179 255
-0.642605 0.145067 -6.676195 0.805504 -0.172042 0.567067 138 144 150 255
-0.637315 0.144462 -6.673757 -0.100779 -0.494762 0.863165 141 145 152 255
-0.470656 0.087718 -6.596220 -0.508741 0.066514 0.858346 114 111 112 255
-0.464113 0.084904 -6.593165 -0.403349 -0.073045 0.912126 111 107 103 255
-0.460772 0.084728 -6.591629 -0.468444 0.099288 0.877896 118 112 108 255
-0.457448 0.085206 -6.590114 -0.245278 0.287416 0.925868 102 97 93 255
-0.445954 0.080888 -6.584759 -0.394982 0.014409 0.918576 116 113 110 255
-0.433881 0.076915 -6.579144 -0.386624 0.003982 0.922229 93 92 89 255
-0.435970 0.076841 -6.580101 -0.423202 -0.048105 0.904758 98 98 94 255
-0.422201 0.072297 -6.573698 -0.192081 -0.411920 0.890745 125 125 124 255
-0.417087 0.070964 -6.571327 -0.119032 0.042131 0.991996 124 123 123 255
-0.410739 0.067202 -6.568343 0.149386 -0.116942 0.981839 121 123 123 255
-0.408598 0.068041 -6.567377 -0.534488 -0.533824 0.655252 141 143 144 255
-0.406395 0.067648 -6.566359 0.363677 -0.532774 0.764128 151 153 154 255
-0.403360 0.065694 -6.564929 0.451574 0.082105 0.888448 132 132 126 255
-0.399994 0.063825 -6.563349 0.376300 0.115525 0.919267 121 121 115 255
-0.394661 0.064545 -6.560917 0.392559 0.089505 0.915361 122 123 121 255
-0.393771 0.062224 -6.560464 -0.535191 -0.680054 0.501096 103 106 93 255
-0.387886 0.061664 -6.557754 -0.232912 -0.129508 0.963836 75 77 70 255
-0.378645 0.059412 -6.553472 -0.467641 0.016960 0.883756 171 174 172 255
-0.347405 0.048952 -6.538941 0.367430 -0.032855 0.929471 43 46 51 255
-0.337449 0.045354 -6.534305 -0.747845 -0.180454 0.638878 174 175 173 255
-0.333314 0.042089 -6.532345 -0.252201 0.032129 0.967141 171 170 169 255
-0.331051 0.042534 -6.531316 -0.351755 -0.105109 0.930172 175 173 170 255
-0.328831 0.042119 -6.530290 -0.498177 -0.083457 0.863049 177 175 173 255
-0.325524 0.041683 -6.528765 -0.299691 -0.026745 0.953661 181 180 178 255
-0.326735 0.040031 -6.529288 -0.234061 -0.049680 0.970952 176 175 173 255
-0.324226 0.038909 -6.528115 0.113842 -0.004964 0.993486 183 183 181 255
-0.321118 0.039190 -6.526696 -0.584485 0.084169 0.807027 175 178 180 255
-0.317706 0.037869 -6.525105 -0.469787 -0.062393 0.880572 177 186 195 255
-0.315115 0.037256 -6.523905 0.426822 -0.008887 0.904292 171 176 179 255
-0.635473 0.141448 -6.672854 -0.107008 -0.142549 0.983986 161 163 166 255
-0.582757 0.121017 -6.648280 0.600825 0.313809 0.735209 186 193 198 255
-0.472300 0.085025 -6.596922 -0.459393 0.020909 0.887987 135 130 127 255
-0.469369 0.084979 -6.595577 -0.462095 0.074052 0.883733 121 116 114 255
-0.466713 0.084907 -6.594357 -0.414173 -0.074077 0.907179 118 113 109 255
-0.465609 0.082755 -6.593810 -0.433143 -0.138433 0.890631 118 115 113 255
-0.465707 0.082943 -6.593858 -0.454243 -0.284248 0.844315 118 114 112 255
-0.462563 0.082123 -6.592400 -0.501304 -0.044184 0.864142 123 120 118 255
-0.459580 0.082054 -6.591031 -0.458797 0.154174 0.875063 114 111 107 255
-0.453171 0.081073 -6.588072 -0.656604 -0.654937 0.374071 123 123 123 255
-0.426735 0.069498 -6.575723 -0.352479 -0.510996 0.783991 154 157 156 255
-0.422676 0.069910 -6.573870 -0.275414 -0.305115 0.911621 148 150 144 255
-0.420351 0.069764 -6.572801 -0.597568 -0.041828 0.800726 150 150 141 255
-0.418919 0.069071 -6.572130 -0.613696 -0.615909 0.493997 141 143 135 255
-0.415723 0.068597 -6.570655 -0.134942 0.009427 0.990809 136 136 129 255
-0.406980 0.064145 -6.566559 -0.097132 -0.500360 0.860352 122 124 113 255
-0.409336 0.065742 -6.567670 -0.169138 -0.375759 0.911152 133 135 132 255
-0.405210 0.064719 -6.565758 -0.476911 -0.400707 0.782297 135 135 124 255
-0.398091 0.060458 -6.562411 0.103146 -0.054345 0.993181 65 66 54 255
-0.396161 0.061917 -6.561554 0.398294 0.241833 0.884804 112 114 105 255
-0.389572 0.058701 -6.558470 -0.191378 0.028246 0.981110 42 42 38 255
-0.348937 0.046982 -6.539606 0.213562 -0.070486 0.974383 48 51 55 255
-0.338354 0.041326 -6.534642 -0.641288 -0.115302 0.758587 168 171 169 255
-0.337262 0.040903 -6.534133 -0.700882 -0.224267 0.677103 170 172 170 255
-0.332127 0.040123 -6.531763 -0.327980 0.078206 0.941442 176 175 172 255
-0.329877 0.040000 -6.530729 -0.379195 -0.025321 0.924970 176 175 173 255
-0.327957 0.037614 -6.529801 -0.193183 -0.010164 0.981110 179 179 177 255
-0.325485 0.037143 -6.528659 -0.201243 0.029083 0.979110 177 177 174 255
-0.319048 0.035711 -6.525679 -0.512081 0.092436 0.853949 168 175 180 255
-0.316992 0.036173 -6.524745 -0.428671 -0.018312 0.903275 167 173 179 255
-0.318240 0.033964 -6.525274 0.006603 0.000894 0.999978 166 173 178 255
-0.313969 0.035093 -6.523337 0.384481 0.009414 0.923085 183 185 183 255
-0.441339 0.072406 -6.582477 -0.085711 -0.093607 0.991913 144 146 151 255
-0.438687 0.072175 -6.581256 -0.331717 -0.026511 0.943007 144 144 144 255
-0.435997 0.071721 -6.580014 -0.164997 -0.126802 0.978109 128 127 126 255
-0.431537 0.069529 -6.577926 -0.339607 -0.105968 0.934579 134 136 135 255
-0.429215 0.069496 -6.576860 -0.368457 -0.232237 0.900170 141 144 143 255
-0.426977 0.067234 -6.575790 -0.393551 -0.202051 0.896824 140 143 139 255
-0.427744 0.067445 -6.576146 -0.355749 -0.360166 0.862394 135 137 134 255
-0.424683 0.068706 -6.574767 0.225886 -0.382909 0.895743 152 155 153 255
-0.423223 0.067646 -6.574077 -0.007425 -0.539746 0.841795 144 146 143 255
-0.424855 0.066752 -6.574808 -0.183322 -0.551011 0.814113 142 144 139 255
-0.418695 0.065792 -6.571964 -0.472010 -0.434858 0.766880 126 127 124 255
-0.412134 0.063527 -6.568911 0.288844 -0.328403 0.899289 106 107 102 255
-0.410488 0.064201 -6.568169 -0.248230 -0.442699 0.861626 100 101 94 255
-0.399866 0.058544 -6.563188 -0.040187 -0.114470 0.992614 43 43 38 255
-0.398760 0.060902 -6.562726 -0.029155 -0.152255 0.987911 63 64 52 255
-0.388577 0.056821 -6.557977 -0.438464 -0.012842 0.898657 38 39 39 255
-0.354367 0.044866 -6.542055 -0.612216 -0.686069 0.393065 66 72 79 255
-0.351840 0.043164 -6.540863 -0.367975 -0.118266 0.922284 60 65 69 255
-0.353201 0.045524 -6.541533 -0.631157 -0.647009 0.427810 60 66 73 255
-0.349328 0.043111 -6.539710 0.060135 -0.079997 0.994980 57 62 67 255
-0.336075 0.038909 -6.533550 -0.781918 -0.101167 0.615118 163 172 178 255
-0.333475 0.038319 -6.532346 -0.417073 -0.041195 0.907939 172 172 171 255
-0.330218 0.037447 -6.530835 -0.742800 0.052877 0.667422 199 201 202 255
-0.326719 0.035394 -6.529191 -0.252487 -0.047828 0.966418 174 173 171 255
-0.318884 0.032298 -6.525537 -0.469337 0.001496 0.883018 169 175 181 255
-0.318044 0.033870 -6.525183 -0.516608 -0.100634 0.850287 184 196 208 255
-0.316996 0.032246 -6.524671 -0.510188 -0.199969 0.836493 171 177 184 255
-0.314510 0.031849 -6.523523 0.161005 -0.014196 0.986851 180 183 183 255
-0.693035 0.153017 -6.699478 -0.184254 -0.903971 0.385858 195 229 236 255
-0.503225 0.090826 -6.611218 -0.523403 0.024488 0.851733 104 107 111 255
-0.467266 0.079447 -6.594505 -0.397524 0.181594 0.899443 125 127 122 255
-0.464754 0.077252 -6.593310 -0.401854 0.137517 0.905319 106 109 107 255
-0.453432 0.073049 -6.588036 -0.525286 -0.532544 0.663680 160 164 166 255
-0.445727 0.070545 -6.584454 -0.185108 -0.294910 0.937424 143 144 143 255
-0.447200 0.072957 -6.585176 -0.552328 -0.012296 0.833536 124 123 122 255
-0.442453 0.070283 -6.582947 -0.221034 -0.184233 0.957707 150 153 152 255
-0.439993 0.069942 -6.581812 -0.305030 -0.246907 0.919779 144 146 144 255
-0.437391 0.069883 -6.580617 -0.563674 0.152802 0.811741 157 159 157 255
-0.434796 0.067600 -6.579383 -0.397162 -0.387750 0.831813 148 150 151 255
-0.432927 0.067633 -6.578527 -0.466151 -0.388232 0.794971 145 147 147 255
-0.430876 0.066338 -6.577561 -0.467599 -0.379347 0.798403 133 135 134 255
-0.429967 0.067470 -6.577166 -0.550055 -0.447860 0.704884 118 120 118 255
-0.427444 0.065160 -6.575964 -0.194217 -0.578150 0.792478 111 112 105 255
-0.427857 0.065465 -6.576159 -0.278743 -0.421680 0.862837 110 111 105 255
-0.413376 0.061520 -6.569441 0.205616 -0.324784 0.923167 56 57 48 255
-0.401733 0.056001 -6.563994 -0.686083 -0.526037 0.502568 43 43 40 255
-0.401733 0.056001 -6.563994 -0.686083 -0.526037 0.502568 43 43 40 255
-0.396614 0.056784 -6.561662 -0.505249 -0.062862 0.860681 36 36 35 255
-0.387745 0.052331 -6.557508 0.443018 -0.059507 0.894536 45 48 54 255
-0.347672 0.039976 -6.538889 0.270841 -0.008577 0.962586 62 69 76 255
-0.339547 0.039323 -6.535150 -0.345006 0.071849 0.935846 146 156 169 255
-0.337867 0.037139 -6.534338 -0.665549 -0.019632 0.746096 157 166 177 255
-0.334508 0.035784 -6.532771 -0.735055 -0.008546 0.677954 168 176 186 255
-0.332287 0.036018 -6.531756 -0.615120 0.078084 0.784557 186 186 186 255
-0.320145 0.030296 -6.526077 -0.323085 0.010701 0.946309 170 176 179 255
-0.317986 0.029525 -6.525071 -0.246466 -0.149099 0.957614 180 189 196 255
-0.315777 0.029823 -6.524064 0.172258 -0.086930 0.981209 170 174 178 255
-0.697898 0.149221 -6.701634 -0.104900 -0.956667 0.271630 126 145 149 255
-0.697898 0.149221 -6.701634 -0.104900 -0.956667 0.271630 127 143 146 255
-0.697898 0.149221 -6.701634 -0.104900 -0.956667 0.271630 127 143 147 255
-0.644588 0.132110 -6.676853 -0.288329 0.215427 0.932983 143 145 155 255
-0.640005 0.130778 -6.674725 0.050759 0.462364 0.885236 160 165 173 255
-0.507744 0.088804 -6.613251 0.314177 -0.195263 0.929067 115 117 120 255
-0.505174 0.088612 -6.612069 -0.232329 -0.219030 0.947654 125 127 130 255
-0.502560 0.087401 -6.610846 -0.524833 0.025351 0.850827 138 141 141 255
-0.459445 0.074091 -6.590814 -0.656643 -0.400358 0.639166 103 108 118 255
-0.454204 0.070584 -6.588342 0.125092 -0.265018 0.956095 158 162 163 255
-0.448266 0.071013 -6.585627 -0.678310 -0.119791 0.724946 173 173 169 255
-0.446775 0.068562 -6.584896 -0.730450 -0.370677 0.573622 142 147 151 255
-0.443845 0.067490 -6.583531 0.028469 0.325099 0.945251 148 151 148 255
-0.436303 0.064822 -6.580020 -0.454089 -0.192683 0.869871 150 155 160 255
-0.434599 0.064780 -6.579238 -0.404602 -0.081035 0.910895 158 162 164 255
-0.431858 0.064152 -6.577969 -0.050525 -0.372005 0.926855 154 157 154 255
-0.432643 0.065814 -6.578361 -0.384694 -0.536871 0.750853 153 155 155 255
-0.429201 0.063710 -6.576742 0.175277 -0.481946 0.858490 119 120 112 255
-0.396315 0.053129 -6.561454 -0.489191 -0.022153 0.871895 40 39 40 255
-0.395018 0.054083 -6.560877 -0.423539 0.068074 0.903316 39 39 38 255
-0.355291 0.041392 -6.542411 -0.653171 -0.607522 0.451979 70 76 81 255
-0.351501 0.038821 -6.540623 -0.342531 -0.050917 0.938126 64 70 74 255
-0.339490 0.035457 -6.535049 -0.676955 -0.045596 0.734610 176 187 194 255
-0.337635 0.033996 -6.534170 -0.678962 -0.049044 0.732534 157 165 165 255
-0.334654 0.031635 -6.532757 -0.597768 -0.058817 0.799508 148 149 147 255
-0.332645 0.033181 -6.531866 -0.561990 0.053982 0.825381 179 180 178 255
-0.322593 0.030481 -6.527203 0.366730 0.013869 0.930224 179 181 180 255
-0.316849 0.027854 -6.524518 -0.309829 -0.085580 0.946933 168 173 179 255
-0.704883 0.149397 -6.704842 0.078534 -0.977974 0.193391 137 152 153 255
-0.701474 0.148118 -6.703253 -0.474347 -0.586547 0.656474 136 146 148 255
-0.637225 0.128097 -6.673398 -0.472651 0.004441 0.881239 164 172 178 255
-0.515281 0.087763 -6.616688 -0.509597 0.079387 0.856743 114 117 119 255
-0.514802 0.088683 -6.616486 -0.169396 0.030115 0.985088 121 123 124 255
-0.512416 0.088035 -6.615379 -0.047938 -0.079698 0.995666 123 125 126 255
-0.509248 0.086815 -6.613902 -0.067965 -0.095516 0.993105 125 127 128 255
-0.476685 0.075691 -6.598752 0.412827 0.173113 0.894207 122 122 120 255
-0.466257 0.073336 -6.593924 -0.335982 0.272795 0.901498 151 154 157 255
-0.452579 0.068006 -6.587547 0.044599 0.085835 0.995311 149 151 144 255
-0.443314 0.064018 -6.583220 -0.050949 0.007343 0.998674 83 86 77 255
-0.440614 0.063842 -6.581979 0.106149 -0.036937 0.993664 93 97 99 255
-0.441900 0.066073 -6.582612 -0.066144 -0.005320 0.997796 136 139 134 255
-0.439054 0.065475 -6.581295 -0.219733 -0.074564 0.972706 130 134 136 255
-0.433052 0.062420 -6.578483 -0.225545 -0.196479 0.954215 165 168 166 255
-0.430425 0.061815 -6.577266 0.449945 -0.241043 0.859911 159 160 152 255
-0.395079 0.049717 -6.560821 -0.420392 -0.414366 0.807200 54 58 63 255
-0.350539 0.036017 -6.540127 -0.317124 0.179298 0.931281 70 76 82 255
-0.348953 0.035114 -6.539382 0.028893 0.069578 0.997158 70 77 83 255
-0.337210 0.031516 -6.533926 -0.623829 -0.748439 0.225115 109 110 112 255
-0.337949 0.033083 -6.534296 -0.725452 -0.074487 0.684230 128 131 125 255
-0.336185 0.031452 -6.533456 -0.655897 -0.117647 0.745626 110 111 110 255
-0.332887 0.030346 -6.531921 -0.533309 0.014598 0.845794 179 178 176 255
-0.323722 0.026366 -6.527641 0.586122 -0.047005 0.808859 184 185 183 255
-0.324031 0.028437 -6.527822 0.251898 -0.032659 0.967203 179 179 177 255
-0.318054 0.025429 -6.525023 -0.149022 -0.096347 0.984129 177 185 192 255
-0.315598 0.025309 -6.523894 0.091849 -0.069004 0.993379 171 175 178 255
-0.751913 0.159171 -6.726601 -0.291308 -0.643759 0.707611 193 231 251 255
-0.739982 0.154936 -6.721046 -0.338226 -0.458822 0.821636 202 228 227 255
-0.666092 0.132462 -6.686722 0.458013 0.396293 0.795723 131 129 129 255
-0.659219 0.130956 -6.683540 -0.315174 0.209808 0.925552 141 139 146 255
-0.523841 0.086842 -6.620595 -0.586458 -0.565598 0.579798 115 120 124 255
-0.517345 0.086920 -6.617618 -0.112113 -0.609952 0.784468 131 133 133 255
-0.514493 0.084216 -6.616257 -0.366789 -0.406996 0.836552 124 125 120 255
-0.506922 0.082809 -6.612758 -0.455450 0.132068 0.880411 118 122 125 255
-0.502219 0.080539 -6.610557 -0.524365 -0.047859 0.850148 111 117 117 255
-0.474006 0.071809 -6.597448 -0.538140 -0.083124 0.838746 150 149 147 255
-0.472477 0.071743 -6.596745 -0.525670 -0.481822 0.701084 148 149 150 255
-0.469942 0.071245 -6.595573 -0.202440 -0.282348 0.937709 138 141 141 255
-0.467493 0.071012 -6.594445 -0.535438 0.097124 0.838971 158 164 165 255
-0.464962 0.070410 -6.593273 0.113429 -0.391750 0.913053 148 151 149 255
-0.453293 0.065321 -6.587822 0.417116 -0.642829 0.642483 94 97 82 255
-0.453293 0.065321 -6.587822 0.417116 -0.642829 0.642483 94 97 82 255
-0.453293 0.065321 -6.587822 0.417116 -0.642829 0.642483 94 97 82 255
-0.448261 0.063677 -6.585482 -0.447863 -0.480501 0.754014 69 70 58 255
-0.449914 0.065641 -6.586279 -0.329279 -0.274575 0.903429 125 126 114 255
-0.443182 0.063911 -6.583158 -0.091185 0.067151 0.993567 74 76 68 255
-0.441883 0.061697 -6.582519 -0.075668 -0.058624 0.995408 52 54 57 255
-0.435754 0.059968 -6.579674 -0.628359 -0.283295 0.724505 158 165 167 255
-0.393652 0.046186 -6.560098 -0.465588 -0.712750 0.524609 66 71 76 255
-0.396105 0.049309 -6.561283 -0.427863 -0.277310 0.860251 57 61 66 255
-0.394694 0.047214 -6.560596 -0.614529 -0.559713 0.555946 67 72 78 255
-0.391930 0.046440 -6.559313 -0.453497 -0.730287 0.510902 65 70 75 255
-0.337542 0.028398 -6.534019 0.158470 0.441217 0.883298 135 134 134 255
-0.334845 0.029167 -6.532796 -0.819470 -0.184341 0.542667 168 171 177 255
-0.332971 0.027818 -6.531911 -0.458332 0.012599 0.888692 180 179 178 255
-0.331170 0.029017 -6.531108 -0.130183 -0.009468 0.991445 191 191 190 255
-0.316262 0.022719 -6.524148 0.091338 -0.081681 0.992464 171 176 181 255
-0.746620 0.155778 -6.724107 -0.043130 -0.906834 0.419274 194 224 231 255
-0.718223 0.145882 -6.710891 -0.370108 -0.795026 0.480576 125 128 129 255
-0.666767 0.128721 -6.686959 0.341539 0.489790 0.802158 149 149 158 255
-0.659444 0.129914 -6.683623 0.119937 0.471676 0.873577 157 157 163 255
-0.546676 0.091429 -6.631157 -0.527063 -0.613925 0.587623 96 96 98 255
-0.535225 0.087091 -6.625821 -0.300533 -0.814548 0.496176 139 139 136 255
-0.510675 0.080416 -6.614432 -0.417971 0.100418 0.902893 80 80 68 255
-0.507692 0.079733 -6.613051 -0.319805 -0.068047 0.945037 108 110 101 255
-0.504366 0.078690 -6.611506 -0.353464 0.112461 0.928664 120 122 115 255
-0.477594 0.069119 -6.599041 -0.315047 -0.025615 0.948730 84 82 71 255
-0.475118 0.069180 -6.597907 -0.370221 -0.123107 0.920750 138 138 133 255
-0.472664 0.069377 -6.596785 -0.452182 -0.077053 0.888591 148 149 148 255
-0.467596 0.068035 -6.594435 -0.404547 -0.322105 0.855915 134 137 134 255
-0.470006 0.068279 -6.595545 -0.532582 -0.469770 0.704040 130 132 132 255
-0.464125 0.065491 -6.592793 -0.541588 -0.709133 0.451457 117 120 107 255
-0.451578 0.061909 -6.586969 -0.202772 -0.299876 0.932179 45 45 40 255
-0.449207 0.061784 -6.585880 -0.116459 -0.436696 0.892039 44 45 40 255
-0.449207 0.061784 -6.585880 -0.116459 -0.436696 0.892039 44 45 40 255
-0.449207 0.061784 -6.585880 -0.116459 -0.436696 0.892039 44 45 40 255
-0.445904 0.060456 -6.584339 -0.241104 -0.287643 0.926893 44 44 40 255
-0.445973 0.060502 -6.584372 -0.521186 0.088362 0.848856 45 45 42 255
-0.445989 0.060523 -6.584379 -0.528389 0.079788 0.845245 45 45 42 255
-0.442903 0.059832 -6.582951 0.280214 0.024764 0.959618 42 44 44 255
-0.440363 0.059779 -6.581784 -0.008774 -0.135818 0.990695 76 79 89 255
-0.432649 0.056594 -6.578185 0.132281 -0.096129 0.986540 155 157 158 255
-0.396085 0.046289 -6.561215 -0.598903 -0.596317 0.534529 68 73 79 255
-0.397202 0.045333 -6.561709 -0.598837 -0.666714 0.443719 69 75 80 255
-0.391733 0.044664 -6.559188 -0.510237 -0.633941 0.581186 57 63 65 255
-0.334213 0.025869 -6.532443 0.500186 0.017501 0.865741 172 171 171 255
-0.332215 0.026544 -6.531539 0.037012 -0.081225 0.996008 177 176 174 255
-0.323956 0.023672 -6.527696 0.539300 -0.025543 0.841726 188 188 187 255
-0.321585 0.021541 -6.526567 0.113436 -0.081443 0.990202 169 173 175 255
-0.315678 0.020795 -6.523843 0.224978 -0.006175 0.974344 172 177 179 255
-0.751364 0.155347 -6.726274 -0.230717 -0.563166 0.793482 185 210 212 255
-0.736162 0.150514 -6.719209 0.478534 -0.871900 0.103904 110 115 110 255
-0.684803 0.132819 -6.695310 -0.339632 0.121333 0.932700 125 123 122 255
-0.549949 0.088808 -6.632607 -0.079713 0.216463 0.973031 117 116 117 255
-0.544664 0.088578 -6.630179 -0.422558 -0.413425 0.806551 122 121 120 255
-0.542404 0.089034 -6.629151 -0.621418 -0.281182 0.731284 135 134 138 255
-0.540459 0.087738 -6.628234 -0.537754 -0.043743 0.841966 137 135 134 255
-0.539383 0.086466 -6.627716 -0.534423 -0.667071 0.519045 161 161 155 255
-0.527580 0.084709 -6.622269 -0.134281 -0.703536 0.697858 112 113 109 255
-0.522937 0.082564 -6.620098 -0.414778 -0.288579 0.862949 87 88 75 255
-0.515920 0.081297 -6.616855 -0.513688 -0.701260 0.494327 58 58 46 255
-0.508304 0.077396 -6.613286 -0.283875 -0.404246 0.869483 45 45 39 255
-0.505708 0.077150 -6.612091 -0.292792 -0.526775 0.797985 59 60 52 255
-0.479011 0.066905 -6.599648 -0.298235 0.056235 0.952835 56 56 50 255
-0.471203 0.066540 -6.596060 -0.425096 -0.117453 0.897496 153 156 155 255
-0.471087 0.066779 -6.596011 -0.444809 -0.211098 0.870392 150 153 152 255
-0.468631 0.066041 -6.594871 -0.138822 -0.353991 0.924889 115 119 113 255
-0.467449 0.064320 -6.594295 0.332303 -0.473181 0.815889 75 77 68 255
-0.466218 0.065852 -6.593760 -0.228683 -0.499717 0.835456 95 97 86 255
-0.440735 0.055726 -6.581876 0.617895 -0.118037 0.777350 60 66 80 255
-0.441680 0.057601 -6.582346 0.172393 -0.111842 0.978658 39 42 51 255
-0.395681 0.043981 -6.560985 -0.598489 -0.668595 0.441351 69 74 79 255
-0.337543 0.024809 -6.533949 -0.684110 -0.388075 0.617569 162 161 160 255
-0.335689 0.023221 -6.533068 -0.214633 -0.020017 0.976490 155 155 155 255
-0.333287 0.023167 -6.531966 -0.070458 -0.030485 0.997049 176 175 174 255
-0.323899 0.020552 -6.527609 0.526138 -0.003785 0.850391 188 188 187 255
-0.321398 0.020119 -6.526453 -0.023422 -0.031392 0.999233 168 172 174 255
-0.318596 0.019109 -6.525149 -0.640596 -0.125238 0.757597 181 193 204 255
-0.316792 0.018998 -6.524320 -0.174853 -0.063038 0.982575 169 174 178 255
-0.754884 0.151322 -6.727810 -0.175876 -0.836675 0.518694 124 133 130 255
-0.582591 0.096616 -6.647730 -0.501291 -0.691380 0.520289 101 103 105 255
-0.548182 0.086079 -6.631744 -0.615224 -0.369481 0.696407 150 152 152 255
-0.545217 0.085507 -6.630373 -0.175993 -0.024435 0.984088 139 138 135 255
-0.543084 0.086206 -6.629408 0.030876 0.323182 0.945833 148 146 142 255
-0.537596 0.082721 -6.626824 0.286962 -0.295278 0.911298 129 128 122 255
-0.535118 0.082557 -6.625684 0.120327 -0.380021 0.917118 116 116 110 255
-0.514149 0.074738 -6.615915 -0.447834 0.142325 0.882716 32 32 29 255
-0.514202 0.074807 -6.615941 -0.443963 0.150196 0.883367 32 32 29 255
-0.511261 0.075097 -6.614598 -0.431728 0.154794 0.888623 34 33 32 255
-0.510963 0.074699 -6.614454 -0.430699 0.124014 0.893934 33 33 31 255
-0.510468 0.075235 -6.614237 -0.287100 0.353344 0.890349 35 35 33 255
-0.509273 0.075532 -6.613695 -0.211195 -0.460819 0.861999 33 33 32 255
-0.505859 0.074347 -6.612106 -0.210934 0.023345 0.977222 35 35 34 255
-0.473860 0.062310 -6.597196 -0.014940 -0.027545 0.999509 153 155 159 255
-0.475542 0.065819 -6.598036 -0.520232 -0.006239 0.854002 114 116 119 255
-0.471187 0.062209 -6.595969 -0.022372 -0.048563 0.998570 161 164 162 255
-0.472554 0.064648 -6.596643 -0.213237 0.001222 0.977000 159 162 163 255
-0.472583 0.064644 -6.596656 -0.213955 0.012315 0.976766 159 162 163 255
-0.469841 0.064398 -6.595394 -0.174662 -0.299446 0.937990 147 151 146 255
-0.443348 0.055179 -6.583064 0.185691 -0.114015 0.975971 38 40 44 255
-0.441206 0.052795 -6.582035 0.546638 -0.104335 0.830844 55 60 75 255
-0.437100 0.054372 -6.580183 -0.473344 -0.060574 0.878792 150 158 167 255
-0.435801 0.051966 -6.579540 -0.503538 -0.033248 0.863333 160 167 171 255
-0.337077 0.022436 -6.533689 -0.466192 -0.051413 0.883188 152 152 151 255
-0.337365 0.020264 -6.533779 -0.614567 0.013047 0.788756 156 156 155 255
-0.332124 0.021127 -6.531393 -0.239701 -0.092470 0.966433 176 175 174 255
-0.322836 0.018337 -6.527079 0.319511 -0.029676 0.947118 177 180 180 255
-0.319873 0.017008 -6.525693 -0.559033 0.000976 0.829145 170 176 181 255
-0.318131 0.017007 -6.524895 -0.547651 0.029311 0.836194 181 191 199 255
-0.315385 0.016213 -6.523620 0.263299 -0.046219 0.963607 177 181 182 255
-0.691346 0.127366 -6.698205 -0.156529 0.358813 0.920191 160 167 174 255
-0.591768 0.095930 -6.651925 -0.478338 -0.661217 0.577914 104 106 106 255
-0.565686 0.087812 -6.639805 0.363629 0.051679 0.930109 140 145 145 255
-0.561412 0.089237 -6.637873 -0.079962 -0.031433 0.996302 141 146 147 255
-0.551592 0.083633 -6.633261 -0.513241 -0.101970 0.852166 112 113 114 255
-0.548994 0.083585 -6.632068 -0.480613 -0.010835 0.876866 105 107 109 255
-0.545909 0.083464 -6.630651 -0.460507 0.032929 0.887045 126 127 127 255
-0.539359 0.081385 -6.627606 -0.637055 -0.582150 0.505235 132 135 134 255
-0.533398 0.079510 -6.624836 -0.378828 -0.631307 0.676714 109 107 90 255
-0.514232 0.073329 -6.615926 -0.435800 0.155648 0.886483 39 40 40 255
-0.514104 0.071769 -6.615837 -0.142585 -0.228220 0.963112 40 40 41 255
-0.508105 0.072772 -6.613105 -0.454165 0.139207 0.879975 38 40 40 255
-0.495587 0.067310 -6.607258 -0.706908 -0.329259 0.625995 69 78 68 255
-0.476739 0.063027 -6.598530 -0.441846 -0.009798 0.897037 108 108 110 255
-0.475220 0.060104 -6.597777 -0.449910 -0.011744 0.892997 135 134 137 255
-0.472512 0.059973 -6.596532 -0.046377 -0.027501 0.998545 163 165 166 255
-0.444236 0.052880 -6.583426 0.133457 -0.147855 0.979963 45 48 54 255
-0.445603 0.053764 -6.584071 -0.476992 -0.653105 0.588161 46 49 53 255
-0.337439 0.018290 -6.533775 -0.555077 -0.102003 0.825521 153 154 155 255
-0.332728 0.017007 -6.531589 -0.222989 -0.003228 0.974816 176 175 174 255
-0.333706 0.019562 -6.532087 0.299432 -0.027777 0.953713 175 174 173 255
-0.324136 0.016097 -6.527631 0.454919 -0.046952 0.889294 189 190 188 255
-0.798975 0.158516 -6.748172 -0.029572 -0.165960 0.985689 156 177 177 255
-0.602320 0.095909 -6.656765 -0.459448 -0.063497 0.885932 77 78 74 255
-0.596447 0.096223 -6.654077 -0.485402 -0.640048 0.595586 89 90 90 255
-0.589179 0.093920 -6.650699 -0.387575 -0.540083 0.747058 108 109 110 255
-0.584394 0.090965 -6.648447 -0.177355 0.059067 0.982373 136 137 141 255
-0.585596 0.093569 -6.649049 -0.388539 -0.129896 0.912230 100 101 105 255
-0.562040 0.085473 -6.638088 -0.544859 -0.433311 0.717893 137 140 131 255
-0.557899 0.083238 -6.636146 -0.373569 -0.525487 0.764402 98 99 87 255
-0.552931 0.081455 -6.633832 -0.434446 -0.360587 0.825369 78 77 69 255
-0.549124 0.080542 -6.632069 -0.376341 -0.315485 0.871112 110 110 108 255
-0.543692 0.079949 -6.629566 -0.610034 -0.249680 0.752010 115 121 127 255
-0.546941 0.080870 -6.631074 -0.527176 -0.249233 0.812384 120 121 124 255
-0.537682 0.078101 -6.626773 0.590201 -0.250143 0.767523 126 124 113 255
-0.512577 0.069250 -6.615088 -0.429133 -0.164101 0.888209 44 47 50 255
-0.510173 0.070068 -6.614001 -0.456561 0.101889 0.883839 46 49 53 255
-0.503900 0.067015 -6.611065 -0.548482 -0.573914 0.608104 57 60 67 255
-0.503900 0.067015 -6.611065 -0.548482 -0.573914 0.608104 57 60 67 255
-0.488312 0.064240 -6.603862 -0.171442 -0.973472 0.151528 125 134 139 255
-0.477915 0.060228 -6.599015 -0.417599 -0.069565 0.905965 113 108 107 255
-0.477649 0.058305 -6.598856 -0.393185 -0.077138 0.916218 135 130 126 255
-0.475028 0.057951 -6.597647 -0.563371 -0.212656 0.798368 149 148 149 255
-0.443041 0.048534 -6.582794 0.258021 -0.095050 0.961452 55 62 71 255
-0.441985 0.050338 -6.582345 0.299992 -0.035859 0.953268 56 63 77 255
-0.339417 0.018451 -6.534685 -0.693533 -0.200271 0.692029 160 164 165 255
-0.338396 0.016313 -6.534175 -0.820778 -0.218477 0.527817 166 177 187 255
-0.336605 0.015321 -6.533335 -0.677109 0.029857 0.735277 155 164 173 255
-0.335222 0.014662 -6.532688 -0.666810 -0.105509 0.737721 170 174 177 255
-0.331671 0.014240 -6.531051 -0.150129 -0.136682 0.979173 177 177 175 255
-0.325343 0.013686 -6.528138 0.470256 -0.096481 0.877241 182 182 180 255
-0.325375 0.013762 -6.528154 0.482455 -0.102317 0.869924 182 182 179 255
-0.326799 0.011794 -6.528769 0.175417 -0.037276 0.983788 177 176 175 255
-0.793087 0.151831 -6.745341 -0.025390 -0.146026 0.988955 119 119 118 255
-0.598093 0.093401 -6.654777 -0.482500 -0.085968 0.871667 101 100 103 255
-0.601224 0.093442 -6.656214 -0.393562 -0.008168 0.919262 81 82 82 255
-0.592709 0.089885 -6.652239 -0.253618 0.103393 0.961763 134 134 135 255
-0.590405 0.090673 -6.651198 -0.082526 0.229194 0.969876 129 129 129 255
-0.587481 0.090887 -6.649861 -0.332709 0.027612 0.942625 136 135 136 255
-0.576413 0.086274 -6.644695 -0.397916 -0.550701 0.733751 122 124 119 255
-0.570811 0.084519 -6.642092 -0.501712 -0.494703 0.709615 120 122 111 255
-0.567722 0.082877 -6.640643 -0.470257 -0.349878 0.810212 68 69 57 255
-0.565186 0.082918 -6.639481 -0.461725 -0.239203 0.854162 60 61 52 255
-0.562579 0.082978 -6.638287 -0.435294 -0.395505 0.808761 59 60 50 255
-0.560450 0.083298 -6.637317 -0.458481 -0.489017 0.742062 71 72 60 255
-0.555358 0.081339 -6.634943 -0.418895 -0.285869 0.861862 55 55 46 255
-0.553748 0.078946 -6.634158 -0.360704 -0.242710 0.900547 37 37 34 255
-0.550757 0.078686 -6.632782 -0.280742 -0.229540 0.931931 43 43 40 255
-0.542496 0.077882 -6.628977 -0.463381 -0.143075 0.874533 132 135 138 255
-0.511183 0.066290 -6.614391 -0.519990 0.021574 0.853900 58 63 68 255
-0.508196 0.066349 -6.613022 -0.523082 0.078479 0.848661 56 61 65 255
-0.499660 0.062298 -6.609029 -0.384357 0.176873 0.906083 92 93 95 255
-0.500658 0.063399 -6.609508 -0.433997 -0.725791 0.533736 82 84 92 255
-0.482619 0.058003 -6.601130 -0.168085 -0.075040 0.982912 155 152 145 255
-0.480001 0.057957 -6.599928 -0.297363 -0.040522 0.953904 135 130 119 255
-0.476111 0.055874 -6.598104 -0.447012 -0.281799 0.848982 153 150 147 255
-0.478391 0.055819 -6.599148 -0.442148 -0.173279 0.880045 155 149 140 255
-0.473591 0.055602 -6.596942 -0.292024 -0.207219 0.933693 167 168 168 255
-0.433182 0.043618 -6.578177 -0.222032 0.010745 0.974980 169 173 173 255
-0.337814 0.013714 -6.533858 -0.708924 -0.160111 0.686871 159 168 173 255
-0.335945 0.012243 -6.532972 -0.644893 -0.231280 0.728438 152 156 158 255
-0.334236 0.011942 -6.532183 -0.559834 -0.246013 0.791242 176 177 177 255
-0.332777 0.012699 -6.531528 -0.211461 -0.123319 0.969575 179 179 178 255
-0.325480 0.009260 -6.528115 0.342840 -0.030535 0.938897 183 183 181 255
-0.324238 0.011518 -6.527589 0.368809 -0.080616 0.926003 188 189 187 255
-0.319155 0.010311 -6.525234 -0.611960 -0.146888 0.777129 174 181 188 255
-0.801644 0.151381 -6.749257 -0.229705 -0.866025 0.444114 107 107 108 255
-0.625505 0.096900 -6.667417 -0.592798 -0.551010 0.587349 99 102 106 255
-0.603731 0.092710 -6.657349 -0.406594 -0.055022 0.911951 107 109 108 255
-0.596871 0.090629 -6.654162 -0.354242 0.091503 0.930666 130 130 133 255
-0.585993 0.087004 -6.649103 -0.623847 -0.536896 0.567941 162 165 162 255
-0.581135 0.084709 -6.646831 -0.362444 -0.332304 0.870752 128 129 125 255
-0.578713 0.085508 -6.645735 -0.073018 -0.539961 0.838517 125 127 122 255
-0.578463 0.083907 -6.645589 -0.288756 -0.363754 0.885609 121 121 115 255
-0.576069 0.084026 -6.644494 -0.115628 -0.633821 0.764788 122 123 113 255
-0.574337 0.083891 -6.643697 -0.277466 -0.530641 0.800895 122 123 114 255
-0.570689 0.082687 -6.642000 -0.089748 -0.753926 0.650800 66 66 53 255
-0.554157 0.076110 -6.634291 -0.358747 -0.087078 0.929364 32 33 32 255
-0.552148 0.075017 -6.633348 -0.392111 0.151651 0.907332 33 34 34 255
-0.550444 0.076576 -6.632597 -0.308259 0.309769 0.899455 34 35 34 255
-0.546976 0.075826 -6.630992 -0.165689 0.047818 0.985018 46 47 53 255
-0.548097 0.073579 -6.631463 -0.045189 0.073034 0.996305 38 40 47 255
-0.543933 0.075699 -6.629594 -0.136758 -0.091942 0.986329 127 130 137 255
-0.545269 0.073347 -6.630161 -0.018909 0.017660 0.999665 79 82 96 255
-0.508033 0.062481 -6.612872 -0.516747 -0.461346 0.721202 66 73 80 255
-0.476899 0.053521 -6.598419 -0.432737 -0.118937 0.893640 162 158 153 255
-0.474019 0.052419 -6.597077 0.214820 0.084819 0.972964 167 167 167 255
-0.336970 0.010615 -6.533411 -0.536794 -0.126060 0.834242 115 117 117 255
-0.335265 0.010322 -6.532623 -0.642649 -0.319987 0.696140 159 160 161 255
-0.333330 0.009887 -6.531727 -0.371827 -0.000902 0.928301 179 178 178 255
-0.327688 0.007616 -6.529096 -0.172035 0.047626 0.983939 176 175 175 255
-0.324129 0.006925 -6.527450 0.145409 0.024722 0.989063 188 189 187 255
-0.321589 0.006647 -6.526279 -0.235563 0.074230 0.969020 171 175 178 255
-0.322926 0.009224 -6.526943 0.155601 0.034708 0.987210 176 178 178 255
-0.816207 0.152908 -6.755965 -0.025875 -0.431647 0.901672 106 107 100 255
-0.745489 0.129669 -6.723081 -0.052913 0.418265 0.906782 148 152 160 255
-0.740453 0.130653 -6.720790 -0.275056 0.161217 0.947815 145 146 154 255
-0.631620 0.096724 -6.670218 0.482755 -0.315187 0.817071 76 74 73 255
-0.628073 0.095248 -6.668562 0.531215 -0.167063 0.830603 97 96 96 255
-0.624529 0.093666 -6.666906 -0.308174 -0.701757 0.642313 108 108 107 255
-0.622678 0.094886 -6.666081 -0.372976 0.013027 0.927750 101 101 102 255
-0.606569 0.088383 -6.658566 0.345708 0.186995 0.919521 142 145 141 255
-0.602506 0.087914 -6.656694 -0.127648 -0.221216 0.966835 107 110 105 255
-0.598878 0.087597 -6.655024 -0.362527 0.110082 0.925449 108 110 111 255
-0.594298 0.084794 -6.652869 -0.466699 -0.033018 0.883800 114 117 118 255
-0.586707 0.084488 -6.649382 -0.220917 -0.274317 0.935920 153 156 151 255
-0.589922 0.085537 -6.650877 -0.592733 -0.100036 0.799162 160 167 170 255
-0.584948 0.082051 -6.648528 -0.296471 -0.307414 0.904213 123 126 123 255
-0.581440 0.082597 -6.646929 -0.409623 -0.278118 0.868827 128 129 123 255
-0.573580 0.081245 -6.643298 -0.357347 -0.641371 0.678930 79 79 62 255
-0.577024 0.081931 -6.644891 -0.226879 -0.443109 0.867284 106 106 91 255
-0.546480 0.070645 -6.630664 0.547796 -0.059705 0.834479 52 57 71 255
-0.543749 0.070776 -6.629414 -0.259211 -0.023766 0.965528 139 143 155 255
-0.509768 0.061826 -6.613656 -0.535440 -0.670786 0.513176 71 79 88 255
-0.505638 0.059804 -6.611722 -0.415193 -0.580595 0.700375 67 76 84 255
-0.499704 0.058519 -6.608975 -0.651391 -0.345517 0.675506 80 86 90 255
-0.487867 0.053826 -6.603456 0.566085 -0.392551 0.724881 170 170 168 255
-0.484859 0.052304 -6.602046 -0.475952 0.084413 0.875411 179 177 173 255
-0.482619 0.053604 -6.601044 -0.481477 0.075496 0.873201 183 179 167 255
-0.478262 0.050413 -6.598984 -0.266627 -0.059232 0.961978 167 164 155 255
-0.476385 0.051201 -6.598138 -0.497353 -0.289723 0.817741 164 162 159 255
-0.339216 0.011462 -6.534457 -0.737533 -0.176838 0.651747 126 130 127 255
-0.336138 0.007568 -6.532970 -0.424264 0.120048 0.897546 145 145 146 255
-0.334511 0.007898 -6.532230 0.076309 0.037181 0.996391 174 174 174 255
-0.325295 0.004563 -6.527938 0.591676 -0.063664 0.803658 187 187 185 255
-0.318755 0.005162 -6.524951 -0.563229 -0.005201 0.826285 176 183 191 255
-0.320571 0.004847 -6.525778 -0.600372 0.034959 0.798956 171 178 182 255
-0.817510 0.147725 -6.756463 -0.433377 -0.575141 0.693828 115 113 108 255
-0.811915 0.147060 -6.753883 -0.438402 -0.564903 0.699063 113 112 108 255
-0.747897 0.130150 -6.724195 -0.336635 0.146033 0.930243 148 152 161 255
-0.747897 0.130150 -6.724195 -0.336635 0.146033 0.930243 148 152 161 255
-0.633308 0.094607 -6.670951 0.624595 -0.238994 0.743481 85 83 78 255
-0.629809 0.093940 -6.669333 -0.597113 -0.538244 0.594768 113 113 117 255
-0.625421 0.090908 -6.667262 -0.414580 -0.652782 0.634034 141 139 137 255
-0.621686 0.091630 -6.665563 -0.305447 -0.075524 0.949209 133 133 130 255
-0.619024 0.091734 -6.664344 0.025593 -0.085418 0.996016 129 130 128 255
-0.613332 0.088318 -6.661667 -0.376958 -0.797818 0.470520 114 117 117 255
-0.613332 0.088318 -6.661667 -0.376958 -0.797818 0.470520 114 117 117 255
-0.612315 0.087698 -6.661189 -0.148133 -0.291781 0.944945 105 107 104 255
-0.600991 0.085125 -6.655945 -0.428569 -0.088517 0.899163 103 105 96 255
-0.603989 0.085090 -6.657320 -0.210980 -0.119889 0.970110 85 86 75 255
-0.597675 0.085068 -6.654423 -0.338814 0.000607 0.940853 121 124 120 255
-0.590406 0.082124 -6.651032 -0.404419 -0.249226 0.879961 120 124 127 255
-0.593097 0.082246 -6.652269 -0.414969 -0.154893 0.896554 116 118 118 255
-0.587689 0.082112 -6.649786 -0.316965 -0.264856 0.910706 116 120 122 255
-0.584542 0.079498 -6.648292 -0.321758 -0.235570 0.917049 134 137 133 255
-0.582085 0.080156 -6.647178 -0.265992 -0.510636 0.817618 131 132 121 255
-0.555575 0.072319 -6.634867 -0.470878 -0.353545 0.808258 42 44 47 255
-0.546868 0.067732 -6.630785 0.323082 -0.080559 0.942936 57 63 76 255
-0.507529 0.057686 -6.612548 -0.103265 -0.452444 0.885794 80 86 92 255
-0.503737 0.056058 -6.610777 -0.481076 -0.460138 0.746216 80 84 87 255
-0.504490 0.057262 -6.611146 -0.465743 -0.399350 0.789686 76 80 83 255
-0.504755 0.057286 -6.611268 -0.564831 -0.535611 0.627764 80 84 88 255
-0.499091 0.054286 -6.608612 -0.628466 -0.230201 0.742993 91 96 109 255
-0.490627 0.051893 -6.604684 0.401634 -0.067036 0.913343 168 169 168 255
-0.476644 0.047932 -6.598194 -0.465623 -0.259131 0.846196 167 165 163 255
-0.473031 0.047533 -6.596529 -0.168855 -0.043437 0.984683 173 175 174 255
-0.474582 0.048335 -6.597256 0.600862 0.075878 0.795744 172 172 172 255
-0.434193 0.036650 -6.578506 -0.551854 0.115926 0.825844 155 160 164 255
-0.338735 0.008072 -6.534171 -0.641674 -0.004793 0.766962 134 134 135 255
-0.332667 0.006111 -6.531350 0.168964 -0.088986 0.981597 179 179 178 255
-0.327897 0.004502 -6.529131 -0.133804 -0.012380 0.990931 179 178 178 255
-0.320730 0.002282 -6.525801 -0.573418 0.033027 0.818597 171 177 181 255
-0.660747 0.098249 -6.683606 -0.547508 -0.636268 0.543506 94 97 99 255
-0.634673 0.092145 -6.671529 0.646825 -0.197920 0.736509 112 109 101 255
-0.631060 0.091361 -6.669857 -0.355308 0.099410 0.929448 127 123 120 255
-0.616572 0.087588 -6.663139 0.543775 -0.266634 0.795748 113 114 111 255
-0.609479 0.085899 -6.659853 -0.144769 -0.706664 0.692580 100 101 93 255
-0.605359 0.082552 -6.657898 -0.174595 -0.229409 0.957543 46 46 40 255
-0.596097 0.082149 -6.653643 -0.396538 -0.027313 0.917612 73 73 69 255
-0.591851 0.080470 -6.651663 -0.471385 -0.300319 0.829219 102 104 105 255
-0.589118 0.079926 -6.650399 -0.358788 -0.018177 0.933242 129 132 139 255
-0.557829 0.070452 -6.635865 -0.516023 -0.119937 0.848137 49 52 55 255
-0.548341 0.065670 -6.631421 0.278698 -0.054513 0.958830 61 67 79 255
-0.489176 0.048056 -6.603944 -0.303547 -0.760245 0.574357 174 173 171 255
-0.476782 0.043913 -6.598179 -0.482651 0.084523 0.871725 162 165 167 255
-0.474217 0.045111 -6.597026 -0.586270 0.072379 0.806876 196 203 209 255
-0.471914 0.043038 -6.595930 -0.486698 0.110437 0.866561 180 181 180 255
-0.471761 0.045342 -6.595904 -0.015330 0.008323 0.999848 173 174 172 255
-0.444491 0.036464 -6.583225 -0.092254 0.405714 0.909332 86 88 92 255
-0.444921 0.036096 -6.583415 -0.159334 0.164369 0.973445 90 90 94 255
-0.336278 0.004590 -6.532977 0.166192 -0.069099 0.983670 153 154 154 255
-0.333807 0.004200 -6.531836 0.312335 0.056170 0.948310 177 176 176 255
-0.325658 0.001852 -6.528052 0.416461 -0.029193 0.908685 186 186 183 255
-0.823729 0.146203 -6.759285 -0.293829 -0.647891 0.702781 123 119 113 255
-0.815405 0.141761 -6.755382 0.063405 -0.316251 0.946554 119 115 109 255
-0.788607 0.133935 -6.742939 0.135490 0.272225 0.952647 151 154 153 255
-0.667157 0.096686 -6.686515 -0.028183 -0.967610 0.250873 93 93 101 255
-0.659432 0.094210 -6.682924 -0.397241 -0.557104 0.729270 108 108 110 255
-0.633170 0.088314 -6.670765 -0.052237 0.082587 0.995214 130 127 121 255
-0.635413 0.089030 -6.671808 0.477578 -0.023464 0.878276 122 120 109 255
-0.629776 0.088519 -6.669213 -0.307832 -0.172933 0.935593 137 134 130 255
-0.599822 0.077900 -6.655269 -0.254871 0.299094 0.919556 30 31 30 255
-0.603293 0.079639 -6.656895 -0.193498 -0.168661 0.966495 32 33 30 255
-0.599841 0.078326 -6.655286 -0.298752 0.169281 0.939197 32 32 31 255
-0.599841 0.078326 -6.655286 -0.298752 0.169281 0.939197 32 32 31 255
-0.599841 0.078326 -6.655286 -0.298752 0.169281 0.939197 32 32 31 255
-0.592985 0.075999 -6.652096 -0.051381 0.334836 0.940874 36 38 45 255
-0.551594 0.063684 -6.632874 -0.449449 -0.185030 0.873933 64 70 76 255
-0.545664 0.062709 -6.630135 0.104820 0.193455 0.975494 118 122 128 255
-0.539617 0.060893 -6.627326 0.580951 -0.508252 0.635749 108 108 103 255
-0.502842 0.050910 -6.610267 -0.615461 -0.197465 0.763031 82 89 99 255
-0.479798 0.043670 -6.599557 0.509518 0.231057 0.828857 161 161 156 255
-0.475363 0.041158 -6.597475 -0.483238 -0.028453 0.875027 163 167 169 255
-0.445640 0.033407 -6.583693 -0.281691 -0.355063 0.891393 101 104 106 255
-0.324499 -0.000399 -6.527477 0.415791 -0.055899 0.907741 191 191 188 255
-0.784229 0.128194 -6.740819 0.166247 0.258178 0.951686 162 165 160 255
-0.661818 0.092676 -6.683989 0.981298 -0.133825 0.138364 128 130 131 255
-0.649402 0.088783 -6.678219 -0.430052 -0.350555 0.831965 127 128 129 255
-0.647521 0.088842 -6.677357 0.150783 -0.279837 0.948133 130 132 134 255
-0.643844 0.087088 -6.675637 0.321505 -0.150142 0.934929 134 139 138 255
-0.643844 0.089491 -6.675683 -0.538216 -0.604207 0.587586 140 149 151 255
-0.643632 0.089251 -6.675582 -0.578204 -0.557143 0.596047 140 149 151 255
-0.631223 0.085121 -6.669810 -0.431911 0.149867 0.889378 144 143 140 255
-0.602906 0.076240 -6.656651 -0.006358 -0.214894 0.976617 32 33 33 255
-0.592054 0.072522 -6.651602 0.363571 -0.025316 0.931222 43 46 57 255
-0.547654 0.060483 -6.631004 -0.010198 0.220329 0.975372 75 80 86 255
-0.543473 0.061006 -6.629097 -0.125634 0.372231 0.919598 115 118 118 255
-0.541444 0.058220 -6.628113 -0.235984 -0.436149 0.868381 118 119 122 255
-0.502779 0.046359 -6.610149 -0.084161 -0.250578 0.964431 70 80 92 255
-0.475071 0.038991 -6.597299 0.224683 -0.647673 0.728037 134 137 138 255
-0.472955 0.040060 -6.596349 0.024089 -0.150056 0.988384 154 156 155 255
-0.333197 -0.000649 -6.531461 -0.139914 -0.009823 0.990115 177 177 176 255
-0.327126 -0.004777 -6.528597 0.327637 -0.091844 0.940329 179 178 176 255
-0.324751 -0.004201 -6.527519 0.710857 -0.117815 0.693399 189 188 185 255
-0.320591 -0.004866 -6.525598 -0.635777 0.027072 0.771398 171 178 183 255
-0.670772 0.092334 -6.688088 -0.026060 -0.060410 0.997833 92 95 97 255
-0.672625 0.092012 -6.688932 0.118106 -0.668056 0.734678 108 112 111 255
-0.666263 0.091278 -6.686000 -0.462503 -0.422294 0.779589 103 105 108 255
-0.658728 0.089725 -6.682514 -0.013994 -0.986050 0.165859 142 146 148 255
-0.652344 0.087503 -6.679543 -0.427298 -0.565337 0.705557 131 133 130 255
-0.627972 0.081133 -6.668242 -0.049219 -0.256965 0.965167 136 136 130 255
-0.590804 0.070536 -6.650990 0.034092 0.045300 0.998392 73 77 93 255
-0.586820 0.068914 -6.649131 -0.494299 -0.057702 0.867375 152 156 160 255
-0.550010 0.058460 -6.632046 -0.436323 0.130243 0.890314 78 83 86 255
-0.546375 0.058085 -6.630372 -0.277498 -0.158194 0.947613 78 81 87 255
-0.545046 0.055849 -6.629719 -0.236769 -0.198095 0.951157 85 87 95 255
-0.543919 0.058256 -6.629248 -0.327018 -0.362764 0.872618 95 96 102 255
-0.503059 0.046479 -6.610280 0.063978 -0.189870 0.979722 69 80 93 255
-0.503059 0.046479 -6.610280 0.063978 -0.189870 0.979722 69 80 93 255
-0.482446 0.038590 -6.600673 0.468954 -0.029926 0.882715 167 166 152 255
-0.478220 0.038818 -6.598740 -0.542265 -0.697392 0.468608 118 119 118 255
-0.476986 0.036263 -6.598124 -0.445386 -0.024680 0.894998 149 149 149 255
-0.474119 0.035968 -6.596803 -0.347857 0.089923 0.933225 168 170 172 255
-0.472511 0.037692 -6.596099 -0.071977 -0.128417 0.989105 160 162 162 255
-0.446439 0.027395 -6.583942 -0.649121 -0.300662 0.698744 77 90 100 255
-0.445561 0.029232 -6.583575 -0.360385 -0.260195 0.895779 74 90 105 255
-0.339766 -0.001388 -6.534460 -0.677751 -0.053923 0.733311 173 175 177 255
-0.334613 -0.002471 -6.532076 0.242556 0.014565 0.970028 175 175 175 255
-0.328579 -0.006151 -6.529237 -0.196065 -0.090582 0.976398 175 174 173 255
-0.325355 -0.006989 -6.527742 0.789417 -0.025938 0.613309 186 185 180 255
-0.675154 0.091054 -6.690073 0.278966 -0.538031 0.795425 138 142 140 255
-0.672362 0.089344 -6.688760 -0.546111 -0.490830 0.678859 138 141 134 255
-0.655976 0.084912 -6.681159 0.975054 -0.195239 0.105602 114 116 116 255
-0.653826 0.085639 -6.680187 -0.510536 0.000478 0.859856 115 122 128 255
-0.649673 0.083860 -6.678247 -0.453808 -0.278024 0.846617 109 112 109 255
-0.649855 0.085007 -6.678353 -0.543445 -0.280357 0.791244 112 116 113 255
-0.592559 0.067548 -6.651737 -0.280846 0.176219 0.943437 66 72 82 255
-0.589396 0.067672 -6.650289 -0.258400 0.205878 0.943845 112 118 127 255
-0.546361 0.053485 -6.630276 -0.194613 -0.120728 0.973422 78 82 90 255
-0.489040 0.036691 -6.603661 -0.276343 -0.129684 0.952269 174 175 173 255
-0.483896 0.036477 -6.601297 0.113064 0.155713 0.981310 179 178 169 255
-0.480442 0.034684 -6.599679 -0.448680 0.036947 0.892928 171 167 153 255
-0.478398 0.034169 -6.598731 -0.564247 -0.121910 0.816556 166 163 156 255
-0.475650 0.033645 -6.597460 -0.410776 -0.053812 0.910147 164 164 163 255
-0.473115 0.034046 -6.596305 -0.121792 -0.122305 0.984991 173 175 174 255
-0.338718 -0.004294 -6.533923 -0.673427 -0.035970 0.738379 172 178 183 255
-0.334134 -0.007576 -6.531756 -0.251026 0.029382 0.967534 174 174 175 255
-0.329513 -0.008270 -6.529624 0.007491 0.012728 0.999891 176 176 175 255
-0.327075 -0.008895 -6.528493 0.298662 -0.001745 0.954357 179 178 176 255
-0.324679 -0.008896 -6.527395 0.624389 -0.041114 0.780031 190 191 188 255
-0.696802 0.094353 -6.700066 -0.238589 -0.504348 0.829885 131 130 127 255
-0.692335 0.091524 -6.697962 0.564949 0.074942 0.821715 127 128 123 255
-0.683060 0.088066 -6.693641 -0.159637 -0.892790 0.421238 121 122 113 255
-0.649678 0.080115 -6.678177 -0.535029 -0.304918 0.787889 101 106 106 255
-0.647481 0.080285 -6.677173 -0.561164 -0.310824 0.767127 109 114 116 255
-0.597624 0.066444 -6.654038 -0.354271 -0.811751 0.464276 67 73 80 255
-0.590841 0.064362 -6.650887 -0.305486 0.113305 0.945431 95 100 106 255
-0.547385 0.051093 -6.630699 -0.149028 -0.263763 0.953006 69 76 87 255
-0.482896 0.034362 -6.600798 -0.306594 0.210455 0.928283 187 185 172 255
-0.479681 0.031592 -6.599269 -0.531033 0.127238 0.837744 182 179 170 255
-0.477037 0.031701 -6.598059 -0.482857 -0.183610 0.856233 165 163 160 255
-0.338810 -0.007024 -6.533912 -0.695521 0.021076 0.718197 160 174 187 255
-0.335424 -0.009684 -6.532308 -0.759726 0.035797 0.649257 194 199 205 255
-0.336365 -0.007667 -6.532778 -0.282143 0.017710 0.959209 158 162 165 255
-0.333288 -0.008968 -6.531342 -0.238347 0.008356 0.971144 185 184 183 255
-0.325883 -0.011061 -6.527905 0.264535 -0.025842 0.964030 188 187 184 255
-0.705824 0.093582 -6.704188 0.701283 0.142356 0.698525 142 144 148 255
-0.696528 0.091481 -6.699884 0.562958 0.136951 0.815060 138 139 133 255
-0.671247 0.084168 -6.688148 -0.241395 0.265239 0.933476 45 45 41 255
-0.657593 0.079784 -6.681800 0.114774 0.115110 0.986700 55 55 62 255
-0.650159 0.077045 -6.678338 -0.502901 -0.124564 0.855321 99 103 109 255
-0.632137 0.072876 -6.669992 -0.358501 0.155138 0.920548 145 145 152 255
-0.592361 0.061880 -6.651536 -0.270254 0.209835 0.939645 70 75 80 255
-0.588386 0.060813 -6.649692 0.440004 0.081617 0.894279 85 87 92 255
-0.585497 0.058336 -6.648319 0.501315 0.003912 0.865256 123 123 127 255
-0.548317 0.048424 -6.631074 0.290876 -0.144965 0.945715 68 81 92 255
-0.495668 0.034239 -6.606653 -0.627722 -0.234387 0.742312 142 145 154 255
-0.490764 0.032377 -6.604368 0.101918 -0.017280 0.994643 171 170 169 255
-0.484880 0.032160 -6.601665 -0.407079 0.260019 0.875601 182 181 178 255
-0.482688 0.030436 -6.600626 0.123193 0.081535 0.989028 185 183 171 255
-0.480527 0.030808 -6.599642 -0.476417 -0.093759 0.874206 180 175 161 255
-0.476298 0.027967 -6.597648 -0.514878 -0.012963 0.857166 170 169 167 255
-0.445789 0.019382 -6.583488 -0.304378 -0.391359 0.868442 76 91 101 255
-0.339702 -0.009422 -6.534275 -0.607963 -0.048358 0.792492 153 161 167 255
-0.337522 -0.009475 -6.533274 -0.386029 -0.021838 0.922228 146 153 158 255
-0.336431 -0.011441 -6.532735 -0.426388 -0.064485 0.902239 158 162 164 255
-0.333536 -0.012327 -6.531390 -0.434294 -0.100165 0.895185 182 182 180 255
-0.326991 -0.013343 -6.528369 0.252740 -0.028536 0.967113 180 179 176 255
-0.746834 0.101595 -6.723153 0.025177 -0.430595 0.902194 81 81 82 255
-0.709873 0.091290 -6.706001 -0.365107 0.016415 0.930821 118 119 119 255
-0.704048 0.089011 -6.703285 -0.366786 -0.229204 0.901628 116 117 121 255
-0.693387 0.088057 -6.698378 0.532732 -0.106462 0.839561 118 120 113 255
-0.659364 0.077426 -6.682567 -0.072632 0.090527 0.993242 46 47 54 255
-0.655903 0.076958 -6.680971 0.167787 -0.003511 0.985817 92 94 105 255
-0.597071 0.060175 -6.653663 -0.387784 0.147634 0.909850 80 83 88 255
-0.496984 0.032231 -6.607217 -0.645646 -0.294524 0.704555 139 142 147 255
-0.491407 0.029539 -6.604607 0.247608 -0.024109 0.968560 170 170 170 255
-0.482910 0.026184 -6.600645 0.415900 -0.033656 0.908787 186 184 173 255
-0.481484 0.028354 -6.600033 -0.025065 -0.097401 0.994930 181 178 163 255
-0.480095 0.026043 -6.599351 -0.282322 -0.172602 0.943665 172 171 161 255
-0.478740 0.027997 -6.598768 -0.271955 -0.111685 0.955807 171 168 159 255
-0.477454 0.025820 -6.598136 -0.473522 -0.101594 0.874904 166 165 165 255
