ply
format ascii 1.0
element vertex 651
property float x
property float y
property float z
property float nx
property float ny
property float nz
property uchar red
property uchar green
property uchar blue
property uchar alpha
end_header
-0.351435 -0.343275 -6.533369 -0.317425 -0.261941 0.911388 128 122 116 255
-0.349407 -0.343438 -6.532434 -0.401887 -0.080817 0.912116 141 136 130 255
-0.347983 -0.343073 -6.531787 -0.565277 -0.151181 0.810930 144 140 135 255
-0.344683 -0.342993 -6.530273 0.286883 -0.089081 0.953815 132 134 136 255
-0.508216 -0.347890 -6.605276 -0.485736 0.223089 0.845158 67 65 61 255
-0.504020 -0.347485 -6.603357 -0.456422 0.338138 0.823007 61 57 54 255
-0.503728 -0.347221 -6.603228 -0.396452 0.241812 0.885637 54 50 48 255
-0.503728 -0.347221 -6.603228 -0.396452 0.241812 0.885637 54 50 48 255
-0.497667 -0.346733 -6.600454 0.803463 0.430774 0.410951 58 55 50 255
-0.362326 -0.344007 -6.538356 0.490068 -0.151156 0.858478 75 75 72 255
-0.360304 -0.344441 -6.537419 -0.211848 0.103671 0.971789 110 111 112 255
-0.358316 -0.344411 -6.536507 -0.079196 -0.088543 0.992919 139 139 139 255
-0.358320 -0.344404 -6.536509 0.001650 -0.138174 0.990407 137 137 137 255
-0.356445 -0.344407 -6.535647 -0.199538 -0.238105 0.950521 145 143 136 255
-0.355391 -0.344866 -6.535155 -0.470242 -0.087528 0.878186 140 136 127 255
-0.353750 -0.344845 -6.534402 -0.447300 0.251723 0.858230 138 134 125 255
-0.352145 -0.344864 -6.533664 -0.246945 0.041959 0.968121 140 136 128 255
-0.350382 -0.344889 -6.532854 -0.612867 -0.343744 0.711502 153 150 143 255
-0.350379 -0.344864 -6.532853 -0.555224 -0.201991 0.806800 148 145 137 255
-0.348714 -0.345331 -6.532080 -0.654816 -0.070031 0.752537 147 143 136 255
-0.346581 -0.344104 -6.531124 -0.680977 -0.177021 0.710588 138 138 139 255
-0.342478 -0.344994 -6.529222 0.761245 -0.071634 0.644496 158 155 149 255
-0.460825 -0.347909 -6.583513 -0.496494 0.462966 0.734272 75 75 71 255
-0.360140 -0.347457 -6.537286 -0.634511 0.259500 0.728050 119 121 123 255
-0.359107 -0.346083 -6.536838 0.445744 -0.321849 0.835300 127 129 129 255
-0.357395 -0.346025 -6.536053 -0.182590 -0.107986 0.977241 147 146 143 255
-0.353059 -0.346448 -6.534054 -0.338081 -0.030635 0.940618 148 146 139 255
-0.351253 -0.346430 -6.533225 -0.636140 -0.319721 0.702214 157 156 150 255
-0.350189 -0.347311 -6.532720 -0.431412 0.194306 0.880982 152 150 147 255
-0.348418 -0.347339 -6.531906 -0.480930 0.066257 0.874252 148 146 144 255
-0.345702 -0.345704 -6.530690 -0.457351 -0.007661 0.889253 125 126 128 255
-0.497421 -0.351561 -6.600249 0.781555 0.361818 0.508192 69 65 57 255
-0.361610 -0.348013 -6.537951 0.707649 -0.134247 0.693694 79 79 77 255
-0.358159 -0.347836 -6.536370 0.636063 -0.382578 0.670118 141 141 142 255
-0.353996 -0.347999 -6.534455 -0.248673 0.783069 0.570057 148 147 145 255
-0.352241 -0.348010 -6.533648 -0.677694 -0.194240 0.709226 151 151 150 255
-0.351100 -0.348982 -6.533106 -0.181270 0.321304 0.929465 140 140 141 255
-0.349308 -0.348963 -6.532284 -0.299096 0.196752 0.933719 147 148 149 255
-0.558892 -0.354682 -6.628418 0.869056 0.428876 0.246591 73 73 76 255
-0.359777 -0.350129 -6.537069 -0.490130 0.578308 0.652175 128 131 132 255
-0.350371 -0.350576 -6.532741 -0.484697 0.343871 0.804252 124 124 127 255
-0.343271 -0.350320 -6.529486 0.780415 -0.091481 0.618533 142 140 137 255
-0.346837 -0.351934 -6.531093 -0.555490 -0.358671 0.750191 122 122 124 255
-0.392268 0.110638 -6.560732 -0.490119 -0.309578 0.814828 164 159 151 255
-0.485215 0.135737 -6.603890 -0.644783 -0.477365 0.596974 179 191 196 255
-0.552382 0.150043 -6.635005 -0.540587 -0.679830 0.495577 204 244 254 255
-0.429559 0.110743 -6.577858 0.188738 -0.075746 0.979102 158 152 148 255
-0.415030 0.106938 -6.571114 -0.443460 0.125797 0.887422 167 165 159 255
-0.416229 0.107553 -6.571677 0.255138 0.369705 0.893433 156 152 145 255
-0.360356 0.087704 -6.545642 -0.699364 -0.550312 0.456123 93 92 89 255
-0.323433 0.076102 -6.528467 -0.834550 -0.404630 0.373900 178 181 185 255
-0.359045 0.085081 -6.544991 -0.776432 -0.529114 0.342333 94 94 96 255
-0.371078 0.086258 -6.550539 -0.512567 0.155535 0.844443 69 68 64 255
-0.360411 0.077574 -6.545475 -0.612803 0.177051 0.770146 135 133 133 255
-0.611547 0.151577 -6.662204 -0.163284 -0.807035 0.567479 187 227 244 255
-0.613885 0.150449 -6.663256 -0.395572 -0.533893 0.747316 191 229 241 255
-0.607068 0.148916 -6.660097 -0.414219 -0.297335 0.860241 185 215 220 255
-0.398528 0.075145 -6.562933 -0.693451 -0.642092 0.326870 93 93 88 255
-0.688788 0.158768 -6.697810 0.902829 -0.426456 -0.055097 185 226 250 255
-0.662767 0.148087 -6.685658 0.313879 -0.945579 0.085788 141 162 167 255
-0.410916 0.071903 -6.568560 -0.757080 -0.468385 0.455463 125 130 141 255
-0.668247 0.145301 -6.688122 0.300286 -0.953760 0.013049 143 152 153 255
-0.740107 0.155174 -6.721308 -0.339322 -0.433628 0.834762 200 226 226 255
-0.528047 0.091740 -6.622725 -0.647384 -0.099999 0.755575 95 98 105 255
-0.506186 0.085941 -6.612576 -0.254374 0.372107 0.892654 143 146 146 255
-0.440420 0.068106 -6.582037 -0.666817 0.020933 0.744928 162 166 166 255
-0.673289 0.129257 -6.690133 -0.462628 0.049385 0.885176 142 144 158 255
-0.502430 0.083704 -6.610808 -0.698310 -0.494568 0.517461 162 169 168 255
-0.579914 0.096385 -6.646630 -0.478325 -0.726577 0.493245 110 114 114 255
-0.498509 0.064360 -6.608641 -0.684210 -0.274882 0.675497 99 100 96 255
-0.498230 0.066006 -6.608544 -0.579648 0.093052 0.809536 97 99 89 255
-0.337948 0.021338 -6.534093 -0.828172 -0.175434 0.532311 175 176 176 255
-0.583813 0.084940 -6.648204 -0.648309 -0.452392 0.612403 163 167 164 255
-0.592722 0.085742 -6.652310 -0.576184 -0.039767 0.816352 124 131 137 255
-0.598387 0.071834 -6.654648 -0.547554 -0.535356 0.643101 47 52 57 255
-0.338808 0.002837 -6.534137 -0.833014 -0.251971 0.492542 172 174 174 255
-0.687977 0.088828 -6.696111 -0.141170 -0.790634 0.595793 118 118 111 255
-0.638408 0.071434 -6.673018 -0.487328 0.076764 0.869838 142 146 138 255
-0.638408 0.071434 -6.673018 -0.487328 0.076764 0.869838 142 146 138 255
-0.550121 0.046700 -6.632007 0.296819 -0.064126 0.952778 71 80 85 255
-0.331458 -0.005193 -6.530610 -0.193635 -0.050239 0.979787 163 162 159 255
-0.664747 0.070468 -6.685095 -0.490206 -0.649270 0.581504 63 70 78 255
-0.650112 0.065561 -6.678281 -0.574184 -0.130258 0.808298 129 139 148 255
-0.650112 0.065561 -6.678281 -0.574184 -0.130258 0.808298 129 139 148 255
-0.650112 0.065561 -6.678281 -0.574184 -0.130258 0.808298 129 139 148 255
-0.496228 0.026038 -6.606866 -0.696383 -0.224591 0.681623 128 129 135 255
-0.654191 0.059769 -6.680045 -0.598737 -0.254347 0.759488 99 103 116 255
-0.496522 0.021012 -6.606906 -0.569023 -0.234076 0.788303 136 137 143 255
-0.496202 0.021544 -6.606769 -0.615602 -0.220662 0.756533 147 149 157 255
-0.320510 -0.026144 -6.525185 -0.321419 -0.322179 0.890444 180 186 191 255
-0.318539 -0.026207 -6.524278 -0.172533 -0.337308 0.925449 181 185 190 255
-0.446833 0.001005 -6.583709 -0.445594 -0.298139 0.844133 75 85 93 255
-0.644269 0.041951 -6.675150 -0.428873 -0.803066 0.413705 185 189 192 255
-0.645394 0.030217 -6.675444 -0.308852 -0.892215 0.329488 187 190 192 255
-0.385353 -0.026521 -6.554954 -0.687730 0.135603 0.713189 192 204 213 255
-0.642563 0.023109 -6.674009 -0.144375 0.066955 0.987255 188 190 192 255
-0.499621 -0.008617 -6.607767 -0.694806 -0.333644 0.637123 135 147 155 255
-0.650316 0.021099 -6.677531 -0.504905 -0.026543 0.862767 160 161 166 255
-0.489882 -0.012796 -6.603215 -0.545956 0.113581 0.830079 167 175 176 255
-0.311148 -0.050858 -6.520417 -0.810782 0.036138 0.584231 116 116 113 255
-0.474084 -0.021567 -6.595794 -0.167234 0.429514 0.887440 192 204 213 255
-0.641458 0.006679 -6.673190 -0.429771 -0.783244 0.449251 199 200 198 255
-0.651688 0.006216 -6.677879 -0.419607 0.091153 0.903117 155 157 164 255
-0.657051 0.005764 -6.680333 -0.260589 -0.050462 0.964130 105 114 127 255
-0.389999 -0.048936 -6.556662 -0.484378 -0.613334 0.623859 103 102 98 255
-0.314036 -0.064118 -6.521491 -0.822381 -0.406349 0.398209 130 134 135 255
-0.560761 -0.017208 -6.635680 0.571461 0.324182 0.753882 164 171 177 255
-0.435803 -0.043092 -6.577807 -0.268445 -0.792546 0.547548 100 102 102 255
-0.564283 -0.019759 -6.637249 0.078202 0.586051 0.806491 154 161 161 255
-0.582025 -0.017799 -6.645433 -0.111120 0.296808 0.948450 153 155 149 255
-0.578505 -0.019581 -6.643783 0.257454 0.582098 0.771284 126 129 124 255
-0.462611 -0.042217 -6.590134 -0.181013 -0.865667 0.466750 111 114 117 255
-0.463733 -0.043818 -6.590619 -0.147257 -0.940104 0.307441 117 120 124 255
-0.470936 -0.043863 -6.593925 -0.244471 -0.584118 0.773977 112 115 118 255
-0.472898 -0.044368 -6.594817 -0.342430 -0.559657 0.754669 119 124 127 255
-0.465511 -0.046828 -6.591378 -0.219827 -0.933089 0.284642 123 124 125 255
-0.480063 -0.044852 -6.598098 -0.666693 -0.531325 0.522699 95 95 94 255
-0.533681 -0.038475 -6.622841 -0.103214 -0.590147 0.800671 93 95 97 255
-0.524840 -0.039097 -6.618769 -0.421715 -0.564702 0.709414 66 66 66 255
-0.520729 -0.040592 -6.616853 -0.544525 -0.599362 0.586734 74 77 80 255
-0.529586 -0.042570 -6.620883 -0.375696 -0.383840 0.843516 100 102 101 255
-0.524621 -0.041314 -6.618627 -0.546254 -0.428934 0.719460 92 94 94 255
-0.474907 -0.053447 -6.595567 -0.158712 -0.133385 0.978273 155 157 153 255
-0.319448 -0.084555 -6.523589 -0.684628 0.263906 0.679439 196 197 199 255
-0.570631 -0.041299 -6.639755 -0.454673 -0.198466 0.868265 116 117 115 255
-0.567942 -0.042568 -6.638496 -0.032386 -0.480213 0.876554 115 114 112 255
-0.568481 -0.043228 -6.638731 -0.147628 -0.759162 0.633939 111 110 108 255
-0.568481 -0.043228 -6.638731 -0.147628 -0.759162 0.633939 111 110 108 255
-0.627939 -0.035199 -6.666187 -0.578732 -0.498745 0.645231 82 84 86 255
-0.515674 -0.053422 -6.614288 -0.551826 0.206094 0.808092 99 102 103 255
-0.365684 -0.082215 -6.544865 0.146321 -0.963462 0.224346 145 150 149 255
-0.632395 -0.036754 -6.668204 -0.577401 -0.491243 0.652141 102 104 106 255
-0.626843 -0.036527 -6.665659 -0.538897 -0.604171 0.586999 103 106 109 255
-0.598842 -0.041878 -6.652699 -0.584500 -0.509638 0.631371 116 115 111 255
-0.474642 -0.063728 -6.595251 -0.631470 0.002027 0.775398 118 122 127 255
-0.670212 -0.032713 -6.685647 -0.393478 -0.627143 0.672210 75 77 79 255
-0.620058 -0.042665 -6.662426 -0.608316 -0.369726 0.702321 111 110 107 255
-0.488239 -0.074666 -6.601287 0.410705 -0.275347 0.869198 193 196 193 255
-0.595527 -0.058289 -6.650865 -0.040295 -0.544583 0.837738 105 105 103 255
-0.452282 -0.081962 -6.584637 0.232477 0.096926 0.967760 81 85 81 255
-0.588925 -0.063695 -6.647731 -0.553150 -0.601735 0.576143 142 145 147 255
-0.677324 -0.054879 -6.688492 -0.125760 -0.458436 0.879785 101 103 102 255
-0.659054 -0.058511 -6.680033 -0.531723 -0.229652 0.815187 102 106 113 255
-0.604655 -0.067378 -6.654884 -0.010689 -0.402546 0.915338 17 19 19 255
-0.673539 -0.063036 -6.686599 -0.147140 -0.379935 0.913236 21 22 20 255
-0.669769 -0.062170 -6.684885 -0.499598 -0.605750 0.619249 31 33 28 255
-0.670361 -0.066604 -6.685072 -0.461498 -0.145215 0.875175 19 21 20 255
-0.697571 -0.077498 -6.697361 0.065204 0.655305 0.752545 119 121 123 255
-0.672450 -0.099353 -6.685410 -0.499124 -0.200336 0.843054 23 24 22 255
-0.671468 -0.099896 -6.684949 -0.411007 -0.393156 0.822497 22 23 23 255
-0.646024 -0.104373 -6.673180 -0.087127 0.055255 0.994664 147 146 135 255
-0.646937 -0.106806 -6.673553 -0.125488 0.163752 0.978488 157 157 152 255
-0.666497 -0.130863 -6.682078 -0.495064 0.016641 0.868697 60 65 80 255
-0.365119 -0.165703 -6.543022 -0.692221 0.283077 0.663850 177 184 189 255
-0.321847 -0.173821 -6.522996 0.297012 0.354735 0.886537 187 191 194 255
-0.452398 -0.170963 -6.583001 0.187263 0.478108 0.858105 123 130 134 255
-0.448346 -0.171462 -6.581131 0.090421 0.727845 0.679754 127 136 142 255
-0.616644 -0.158264 -6.658666 -0.380326 0.435128 0.816098 150 162 171 255
-0.607060 -0.159534 -6.654240 -0.452785 -0.439440 0.775808 133 142 149 255
-0.618046 -0.160612 -6.659265 -0.234066 0.491310 0.838944 135 145 150 255
-0.359909 -0.186186 -6.540240 -0.613102 -0.534943 0.581328 59 58 54 255
-0.365923 -0.187787 -6.542972 -0.727263 -0.473759 0.496630 94 94 91 255
-0.425777 -0.184853 -6.570513 -0.525708 -0.693715 0.492332 71 71 70 255
-0.473007 -0.181449 -6.592266 -0.390346 -0.596857 0.700993 50 50 46 255
-0.449985 -0.182735 -6.581670 0.105460 -0.748584 0.654599 70 71 67 255
-0.524116 -0.178337 -6.615795 -0.235991 -0.826237 0.511509 55 56 52 255
-0.433433 -0.186678 -6.573994 -0.606013 -0.581074 0.543232 82 81 80 255
-0.579115 -0.177368 -6.641069 0.277318 -0.678925 0.679820 63 65 63 255
-0.579118 -0.177376 -6.641070 0.270635 -0.672231 0.689102 64 65 62 255
-0.579152 -0.176944 -6.641094 -0.449019 -0.661020 0.601195 71 73 70 255
-0.564185 -0.177619 -6.634209 -0.152620 0.093114 0.983889 69 70 67 255
-0.529154 -0.180311 -6.618071 -0.008924 -0.453187 0.891371 56 57 54 255
-0.525832 -0.181248 -6.616528 0.129712 -0.732139 0.668691 60 62 59 255
-0.521437 -0.180602 -6.614522 -0.567716 -0.408588 0.714671 59 61 58 255
-0.483476 -0.184617 -6.597013 -0.626158 -0.488589 0.607625 65 63 58 255
-0.356403 -0.196564 -6.538434 -0.811482 -0.083417 0.578392 91 88 83 255
-0.591534 -0.177888 -6.646762 -0.564627 -0.436435 0.700514 73 74 72 255
-0.641493 -0.174382 -6.669771 0.376060 -0.500126 0.780034 44 44 40 255
-0.526332 -0.186779 -6.616652 -0.574360 0.267989 0.773494 94 95 93 255
-0.636427 -0.177260 -6.667389 -0.417209 -0.552581 0.721520 55 54 50 255
-0.633246 -0.179279 -6.665891 -0.430134 -0.443934 0.786071 63 61 58 255
-0.371615 -0.202931 -6.545298 -0.152469 0.016016 0.988178 83 82 78 255
-0.425461 -0.199424 -6.570091 -0.504021 0.135258 0.853035 76 78 79 255
-0.481825 -0.197466 -6.596012 -0.595483 0.306172 0.742738 75 77 78 255
-0.678458 -0.186172 -6.686522 -0.553105 -0.240907 0.797521 92 98 104 255
-0.606890 -0.190403 -6.653576 -0.574814 -0.384206 0.722478 80 83 87 255
-0.604039 -0.190635 -6.652263 -0.607077 -0.230351 0.760523 77 81 85 255
-0.537989 -0.196824 -6.621815 -0.039396 -0.572888 0.818686 90 93 96 255
-0.524671 -0.198519 -6.615667 -0.357063 0.466250 0.809393 82 86 89 255
-0.633233 -0.191884 -6.665646 -0.537063 0.171160 0.825995 91 97 101 255
-0.534817 -0.198793 -6.620321 -0.154428 -0.577531 0.801629 83 86 87 255
-0.626928 -0.194671 -6.662697 -0.476848 -0.572948 0.666593 85 90 94 255
-0.416690 -0.210205 -6.565859 -0.439740 -0.210682 0.873065 121 120 117 255
-0.419639 -0.213059 -6.567159 0.269041 -0.206291 0.940777 55 54 54 255
-0.417420 -0.211930 -6.566162 -0.382141 -0.252800 0.888853 118 116 114 255
-0.358421 -0.238266 -6.538569 -0.729029 -0.056565 0.682142 113 115 115 255
-0.506722 -0.238307 -6.606669 -0.123199 -0.188111 0.974390 138 138 137 255
-0.348585 -0.254747 -6.533740 -0.350019 -0.104706 0.930873 135 132 128 255
-0.525896 -0.254960 -6.615159 -0.526642 0.418955 0.739679 12 13 12 255
-0.435519 -0.278904 -6.573202 -0.283291 0.126665 0.950633 26 28 24 255
-0.435515 -0.278906 -6.573200 -0.163863 0.161056 0.973247 26 28 24 255
-0.528414 -0.279622 -6.615847 -0.377433 -0.608276 0.698244 105 115 121 255
-0.529020 -0.279569 -6.616126 -0.452356 -0.495755 0.741351 105 114 121 255
-0.527804 -0.277842 -6.615601 0.114313 -0.328026 0.937727 106 117 122 255
-0.527828 -0.277818 -6.615612 0.066763 -0.325312 0.943247 109 120 127 255
-0.352878 -0.293152 -6.534982 -0.761498 -0.327437 0.559380 158 156 153 255
-0.522031 -0.291756 -6.612685 -0.321069 -0.210004 0.923479 100 114 125 255
-0.664542 -0.292161 -6.678120 -0.224305 0.159766 0.961333 81 80 78 255
-0.502284 -0.301286 -6.603436 -0.494569 0.099694 0.863402 111 112 115 255
-0.361076 -0.307387 -6.538476 -0.722343 -0.029618 0.690900 97 107 116 255
-0.363332 -0.310109 -6.539461 -0.719814 0.013516 0.694036 105 110 112 255
-0.361057 -0.309436 -6.538429 -0.648635 -0.027139 0.760616 97 103 108 255
-0.502679 -0.311929 -6.603416 -0.451612 0.001996 0.892212 114 116 118 255
-0.498742 -0.311711 -6.601612 -0.055253 0.112791 0.992081 123 125 125 255
-0.361290 -0.311564 -6.538496 -0.692442 0.058819 0.719072 98 107 116 255
-0.507361 -0.313952 -6.605527 -0.395866 -0.160975 0.904090 101 99 97 255
-0.501670 -0.313840 -6.602916 -0.397481 -0.001272 0.917610 113 116 118 255
-0.520639 -0.315353 -6.611598 -0.667132 -0.063097 0.742263 96 109 119 255
-0.507931 -0.315919 -6.605752 -0.443150 -0.069149 0.893777 109 107 103 255
-0.505992 -0.315915 -6.604862 -0.408282 -0.107112 0.906550 101 99 97 255
-0.504429 -0.315788 -6.604146 -0.341859 -0.115445 0.932634 103 102 102 255
-0.502542 -0.315783 -6.603280 -0.406565 -0.039031 0.912788 108 110 112 255
-0.500738 -0.315776 -6.602452 -0.267712 -0.039430 0.962692 117 120 122 255
-0.506795 -0.317760 -6.605196 -0.314429 -0.070805 0.946637 119 116 114 255
-0.501367 -0.317684 -6.602704 -0.278973 0.165250 0.945974 115 119 120 255
-0.523072 -0.320883 -6.612611 -0.494055 -0.443458 0.747833 97 109 120 255
-0.522277 -0.320870 -6.612246 -0.532040 -0.479741 0.697698 96 108 120 255
-0.518357 -0.320651 -6.610450 -0.515521 0.339822 0.786612 95 104 114 255
-0.515576 -0.319627 -6.609192 -0.535994 0.249401 0.806542 111 117 121 255
-0.515868 -0.319729 -6.609324 -0.477928 0.400997 0.781528 110 114 121 255
-0.507721 -0.319592 -6.605586 -0.306671 0.065677 0.949547 110 107 103 255
-0.504520 -0.319482 -6.604118 -0.430179 0.100448 0.897138 119 117 117 255
-0.521623 -0.322192 -6.611920 -0.515020 0.030695 0.856628 93 103 112 255
-0.521727 -0.322611 -6.611960 -0.568017 0.139721 0.811070 92 104 112 255
-0.519944 -0.321847 -6.611156 -0.536857 0.275153 0.797543 92 102 114 255
-0.516397 -0.322179 -6.609521 -0.535979 0.052571 0.842593 99 102 108 255
-0.504111 -0.321455 -6.603893 -0.352375 -0.046923 0.934682 112 112 112 255
-0.502096 -0.321481 -6.602967 -0.530120 0.266708 0.804885 108 111 114 255
-0.497383 -0.321548 -6.600801 0.864676 -0.038352 0.500864 144 143 134 255
-0.521056 -0.324155 -6.611623 -0.534418 0.285609 0.795503 77 88 93 255
-0.502949 -0.323312 -6.603324 -0.321517 0.065270 0.944652 110 111 113 255
-0.501668 -0.323298 -6.602736 -0.231972 0.014806 0.972610 117 120 123 255
-0.503107 -0.325401 -6.603357 -0.290970 -0.651143 0.700963 107 108 109 255
-0.501338 -0.325660 -6.602540 -0.269451 0.128667 0.954380 118 121 123 255
-0.503679 -0.327491 -6.603580 -0.425680 -0.094614 0.899914 113 114 113 255
-0.502362 -0.327489 -6.602975 -0.324795 0.111176 0.939228 111 113 114 255
-0.500407 -0.327489 -6.602077 -0.146674 0.337735 0.929743 122 123 123 255
-0.364038 -0.326533 -6.539474 -0.676449 0.106111 0.728806 100 102 104 255
-0.364562 -0.331448 -6.539621 -0.692704 -0.416986 0.588459 97 103 110 255
-0.363671 -0.333268 -6.539177 -0.747256 -0.303590 0.591136 69 74 82 255
-0.651510 -0.337922 -6.671268 0.214241 0.860506 0.462201 51 51 42 255
-0.460778 -0.340391 -6.583634 -0.514019 0.435971 0.738724 97 100 103 255
-0.460752 -0.340392 -6.583622 -0.518327 0.427734 0.740528 97 100 103 255
-0.460585 -0.340409 -6.583546 -0.534718 0.449770 0.715391 93 97 101 255
-0.368070 -0.337583 -6.541115 0.067084 0.868091 0.491851 106 105 96 255
-0.527447 -0.344982 -6.614162 0.022165 -0.505068 0.862795 73 78 82 255
-0.352848 -0.352264 -6.533847 -0.369504 0.601611 0.708189 99 108 121 255
-0.340550 -0.356985 -6.528110 0.842412 0.335712 0.421472 57 51 45 255
-0.335224 -0.357335 -6.525657 0.875803 -0.155194 0.457038 66 63 59 255
-0.365401 -0.360978 -6.539446 0.138750 0.875905 0.462102 42 44 39 255
-0.324469 -0.362529 -6.520620 0.107585 0.886947 0.449167 51 52 44 255
-0.393188 0.113079 -6.561201 -0.452363 0.004524 0.891822 156 150 145 255
-0.375300 0.104410 -6.552822 0.074873 0.315730 0.945890 131 127 125 255
-0.389231 0.105071 -6.559232 0.549924 0.337876 0.763821 156 152 143 255
-0.323046 0.076728 -6.528301 -0.820460 -0.482793 0.306196 180 183 186 255
-0.335141 0.064790 -6.533629 -0.798735 -0.058054 0.598876 115 116 121 255
-0.601186 0.122648 -6.656897 -0.637180 -0.518428 0.570293 186 199 206 255
-0.338071 0.020109 -6.534126 -0.839165 -0.231938 0.491942 175 176 177 255
-0.503174 0.059486 -6.610691 -0.566160 -0.617938 0.545542 70 79 86 255
-0.500349 0.058250 -6.609370 -0.611906 -0.256446 0.748202 80 88 91 255
-0.627741 0.085464 -6.668386 -0.589847 -0.599156 0.541380 155 159 157 255
-0.585942 0.075329 -6.648999 -0.624051 -0.559605 0.545347 170 179 184 255
-0.331775 -0.016965 -6.530532 -0.715017 0.163694 0.679673 198 203 207 255
-0.500945 -0.006058 -6.608423 -0.703898 -0.293754 0.646712 139 148 149 255
-0.499559 -0.011920 -6.607676 0.956107 -0.060511 0.286703 133 138 141 255
-0.500260 -0.011274 -6.608010 -0.572472 -0.239171 0.784266 142 150 157 255
-0.598596 0.002859 -6.653435 -0.489230 -0.247991 0.836155 87 93 102 255
-0.651173 0.001884 -6.677560 0.293104 0.344934 0.891690 157 159 162 255
-0.475879 -0.041749 -6.596236 -0.703274 -0.447770 0.552185 87 88 88 255
-0.515015 -0.040106 -6.614238 -0.546659 -0.712375 0.440097 85 89 94 255
-0.527862 -0.040577 -6.620129 -0.472592 0.154000 0.867722 107 109 116 255
-0.581685 -0.037449 -6.644904 -0.280797 -0.388388 0.877672 95 98 102 255
-0.579931 -0.036569 -6.644115 -0.415464 -0.504836 0.756658 97 101 103 255
-0.572592 -0.039055 -6.640698 -0.547160 -0.375739 0.747954 108 111 117 255
-0.503220 -0.066104 -6.608329 -0.668477 -0.461656 0.583106 110 120 133 255
-0.348351 -0.101390 -6.536542 -0.698010 0.063402 0.713276 135 140 142 255
-0.337756 -0.107392 -6.531562 0.608577 -0.076308 0.789817 200 199 199 255
-0.338974 -0.109474 -6.532083 -0.154265 -0.166001 0.973985 207 207 208 255
-0.349412 -0.114277 -6.536785 -0.827040 -0.224187 0.515504 159 166 172 255
-0.506262 -0.110749 -6.608879 -0.695039 -0.211493 0.687161 120 133 145 255
-0.506262 -0.110749 -6.608879 -0.695039 -0.211493 0.687161 120 133 145 255
-0.516012 -0.111097 -6.613349 -0.226769 -0.300775 0.926342 28 29 27 255
-0.506619 -0.111542 -6.609027 -0.694406 -0.243402 0.677168 123 136 148 255
-0.506413 -0.126019 -6.608658 -0.637930 0.102957 0.763181 135 145 152 255
-0.554644 -0.127283 -6.630782 0.158946 0.690614 0.705541 57 60 60 255
-0.667766 -0.128686 -6.682703 0.226255 -0.179361 0.957412 41 45 54 255
-0.367134 -0.166639 -6.543929 -0.692267 0.287288 0.661991 167 172 175 255
-0.371676 -0.170863 -6.545935 -0.691160 0.254550 0.676389 172 177 180 255
-0.371658 -0.170861 -6.545927 -0.699524 0.238952 0.673474 172 177 180 255
-0.371657 -0.170863 -6.545926 -0.700358 0.237048 0.673280 173 178 181 255
-0.469603 -0.170451 -6.590911 -0.386830 0.454153 0.802563 118 123 127 255
-0.326742 -0.188584 -6.524964 -0.727155 -0.542784 0.420275 78 77 72 255
-0.447653 -0.182412 -6.580605 0.061807 -0.828000 0.557311 67 67 63 255
-0.437469 -0.183453 -6.575909 -0.428432 -0.595976 0.679160 72 72 69 255
-0.423476 -0.184403 -6.569465 -0.394233 -0.263005 0.880573 67 69 66 255
-0.420655 -0.186610 -6.568128 -0.593302 -0.459736 0.660784 70 72 71 255
-0.420690 -0.186587 -6.568144 -0.600075 -0.441560 0.667035 69 71 70 255
-0.421289 -0.186382 -6.568423 -0.554113 -0.427169 0.714483 65 66 65 255
-0.431871 -0.186742 -6.573276 -0.532614 -0.604246 0.592629 68 67 65 255
-0.430002 -0.186767 -6.572417 -0.494491 -0.416508 0.762889 69 69 68 255
-0.428257 -0.186671 -6.571617 -0.551620 -0.445768 0.704986 77 79 78 255
-0.534146 -0.178364 -6.620400 -0.461339 0.214532 0.860896 57 58 55 255
-0.622444 -0.173531 -6.661039 -0.417195 -0.343524 0.841391 57 58 56 255
-0.618319 -0.175890 -6.659100 -0.263775 -0.594164 0.759863 56 57 54 255
-0.423352 -0.194574 -6.569215 -0.703722 -0.427895 0.567169 130 133 136 255
-0.589305 -0.180781 -6.645684 -0.376469 -0.498935 0.780599 76 75 73 255
-0.539680 -0.199955 -6.622532 -0.384102 -0.751586 0.536268 73 76 76 255
-0.413204 -0.215653 -6.564155 -0.760680 -0.200609 0.617350 113 112 109 255
-0.357523 -0.226468 -6.538381 -0.810627 -0.040654 0.584150 94 98 100 255
-0.512103 -0.248011 -6.608956 -0.585591 -0.009433 0.810552 120 129 138 255
-0.512103 -0.248011 -6.608956 -0.585591 -0.009433 0.810552 120 129 138 255
-0.503234 -0.260360 -6.604649 -0.311475 0.595790 0.740282 129 132 137 255
-0.343736 -0.267342 -6.531274 -0.704370 -0.335527 0.625527 171 174 177 255
-0.520198 -0.270033 -6.612256 -0.166010 -0.257113 0.952016 12 14 13 255
-0.534701 -0.274172 -6.618837 -0.235902 0.494181 0.836741 21 24 23 255
-0.527283 -0.274348 -6.615427 -0.263974 0.464432 0.845352 15 18 17 255
-0.437829 -0.279070 -6.574260 0.794941 0.309195 0.521984 28 31 27 255
-0.550686 -0.317773 -6.625350 0.681216 0.540102 0.494201 107 115 123 255
-0.362941 -0.328543 -6.538931 -0.813436 -0.007419 0.581608 99 107 118 255
-0.380427 0.107006 -6.555225 -0.216428 0.298640 0.929502 143 139 135 255
-0.323181 0.074183 -6.528315 -0.581288 0.286870 0.761452 167 170 174 255
-0.323181 0.074183 -6.528315 -0.581288 0.286870 0.761452 167 170 174 255
-0.323181 0.074183 -6.528315 -0.581288 0.286870 0.761452 167 170 174 255
-0.391057 0.087500 -6.559737 -0.677166 -0.713371 0.180413 84 82 79 255
-0.323451 0.064756 -6.528260 -0.450585 -0.892729 0.002708 99 101 106 255
-0.596325 0.149079 -6.655166 0.268424 -0.849474 0.454250 173 203 208 255
-0.456603 0.081240 -6.589717 -0.705455 -0.630401 0.323926 126 126 129 255
-0.449987 0.078258 -6.586623 -0.675194 -0.004428 0.737627 124 124 120 255
-0.391125 0.057190 -6.559193 -0.626757 -0.759712 0.173242 48 48 46 255
-0.540172 0.094245 -6.628340 -0.647549 -0.657799 0.384682 99 101 101 255
-0.511134 0.086073 -6.614851 -0.677073 -0.028538 0.735362 108 113 118 255
-0.325039 0.032709 -6.528381 -0.085526 0.040956 0.995494 170 168 164 255
-0.519838 0.087209 -6.618869 -0.641061 -0.682561 0.350928 157 162 164 255
-0.537308 0.086653 -6.626881 -0.680461 -0.540071 0.495274 161 162 159 255
-0.536275 0.085201 -6.626379 -0.688464 -0.564392 0.455498 155 159 154 255
-0.519707 0.081492 -6.618700 -0.562771 -0.766049 0.310577 57 58 46 255
-0.584037 0.096164 -6.648520 -0.403351 -0.669280 0.623997 99 101 101 255
-0.582672 0.093649 -6.647845 -0.326017 -0.148956 0.933555 105 107 111 255
-0.331675 0.018670 -6.531162 -0.318206 -0.069579 0.945465 199 200 202 255
-0.751108 0.135153 -6.725980 -0.475514 -0.062403 0.877492 115 114 113 255
-0.617412 0.097907 -6.663879 -0.603768 -0.591670 0.534219 97 102 104 255
-0.504761 0.064345 -6.611512 -0.600593 -0.708606 0.370359 61 70 84 255
-0.481225 0.055632 -6.600538 -0.491135 0.268931 0.828530 193 189 179 255
-0.629698 0.084192 -6.669261 -0.457718 0.178626 0.870969 153 157 156 255
-0.662297 0.088790 -6.684318 -0.634611 -0.452679 0.626379 113 118 125 255
-0.700680 0.089299 -6.701953 -0.542597 -0.032281 0.839373 134 140 145 255
-0.630879 0.069657 -6.669527 -0.604945 -0.190268 0.773201 177 182 185 255
-0.654738 0.066032 -6.680415 -0.573713 -0.093158 0.813742 124 130 135 255
-0.483395 0.013616 -6.600738 -0.555620 0.235172 0.797484 214 214 208 255
-0.480724 0.012880 -6.599497 -0.646969 0.111829 0.754272 201 196 187 255
-0.445836 0.005328 -6.583333 -0.023911 0.137517 0.990211 79 95 111 255
-0.333891 -0.024497 -6.531361 -0.215162 -0.973531 0.077089 201 210 219 255
-0.557786 0.006234 -6.634758 -0.588450 -0.206965 0.781596 99 104 111 255
-0.500396 -0.006110 -6.608170 -0.739419 -0.392030 0.547332 138 148 149 255
-0.349128 -0.048820 -6.537896 -0.766947 -0.570644 0.293528 81 83 84 255
-0.597979 0.002369 -6.653142 -0.172639 -0.155506 0.972632 87 94 102 255
-0.598111 0.002214 -6.653200 -0.157084 -0.223701 0.961916 89 95 104 255
-0.654043 0.005332 -6.678944 -0.371959 0.195556 0.907416 132 137 148 255
-0.648979 0.004104 -6.676595 0.232439 0.110013 0.966369 166 167 165 255
-0.657666 0.003096 -6.680565 -0.259288 0.373464 0.890671 122 128 132 255
-0.647980 0.001702 -6.676091 0.022630 0.574956 0.817871 163 163 160 255
-0.546174 -0.020121 -6.628926 -0.038521 0.559427 0.827984 157 163 163 255
-0.354598 -0.061432 -6.540169 -0.348434 0.284098 0.893242 141 146 151 255
-0.357475 -0.062680 -6.541466 -0.241334 0.191290 0.951402 141 144 145 255
-0.457699 -0.043337 -6.587857 -0.473684 -0.168182 0.864487 119 122 124 255
-0.474963 -0.042629 -6.595798 -0.707270 -0.474406 0.524127 92 94 96 255
-0.613441 -0.015483 -6.659904 0.003340 0.582096 0.813113 171 179 186 255
-0.462488 -0.051021 -6.589911 -0.083568 -0.125137 0.988614 142 139 138 255
-0.460103 -0.051456 -6.588807 -0.613989 0.246677 0.749779 116 113 114 255
-0.459391 -0.052389 -6.588462 -0.318145 0.503083 0.803549 123 120 122 255
-0.533399 -0.040586 -6.622672 -0.444533 -0.556744 0.701731 119 123 129 255
-0.469208 -0.053544 -6.592948 -0.599982 0.190729 0.776945 149 150 149 255
-0.465984 -0.055311 -6.591434 -0.176682 0.552207 0.814770 161 163 163 255
-0.462542 -0.056218 -6.589837 -0.134610 0.528288 0.838327 146 147 148 255
-0.324310 -0.082619 -6.525858 -0.868594 -0.318838 0.379323 181 188 194 255
-0.552226 -0.042664 -6.631278 -0.647437 -0.101513 0.755328 119 120 122 255
-0.607560 -0.034913 -6.656835 -0.513247 -0.570701 0.640997 75 77 77 255
-0.543058 -0.045545 -6.627013 -0.607020 -0.637887 0.473948 114 112 109 255
-0.474868 -0.060376 -6.595418 -0.624623 -0.031705 0.780283 83 86 85 255
-0.388389 -0.080751 -6.555319 -0.576429 -0.645964 0.500460 141 147 150 255
-0.388617 -0.080759 -6.555424 -0.361188 -0.764680 0.533674 126 131 134 255
-0.346034 -0.091301 -6.535669 -0.868514 -0.178402 0.462445 110 115 119 255
-0.476106 -0.068435 -6.595833 -0.489428 -0.260559 0.832208 92 97 95 255
-0.503427 -0.069044 -6.608368 -0.731185 -0.101860 0.674532 115 126 138 255
-0.602689 -0.054486 -6.654226 -0.649646 -0.401605 0.645503 98 100 102 255
-0.503937 -0.071710 -6.608552 -0.737888 -0.195499 0.645989 127 136 146 255
-0.357557 -0.102810 -6.540742 0.194685 0.025637 0.980531 44 47 47 255
-0.503434 -0.083569 -6.608096 -0.722647 -0.047762 0.689565 144 152 164 255
-0.349649 -0.113816 -6.536902 -0.864148 -0.167034 0.474709 162 169 175 255
-0.349649 -0.113816 -6.536902 -0.864148 -0.167034 0.474709 162 169 175 255
-0.347709 -0.121322 -6.535869 -0.863745 -0.079513 0.497616 147 150 151 255
-0.348616 -0.122169 -6.536269 -0.861305 -0.189066 0.471601 141 143 145 255
-0.351220 -0.144837 -6.537035 -0.819294 -0.128130 0.558873 151 157 160 255
-0.349127 -0.144646 -6.536077 -0.848265 0.025621 0.528952 134 136 136 255
-0.515693 -0.129139 -6.612860 0.179617 0.080917 0.980403 29 31 31 255
-0.670512 -0.112631 -6.684268 -0.608107 -0.280566 0.742623 48 52 58 255
-0.425775 -0.164772 -6.570893 -0.258882 0.658640 0.706522 133 138 144 255
-0.472023 -0.169402 -6.592043 -0.117703 0.699746 0.704629 131 138 143 255
-0.469744 -0.168586 -6.591012 -0.397524 0.429126 0.811064 125 131 136 255
-0.461685 -0.170445 -6.587276 -0.084065 0.601698 0.794288 136 146 153 255
-0.391433 -0.183738 -6.554763 -0.651353 -0.631697 0.420355 48 48 44 255
-0.362939 -0.186008 -6.541635 -0.194339 -0.500365 0.843722 75 74 70 255
-0.369325 -0.186588 -6.544557 -0.595128 -0.687098 0.416796 86 86 81 255
-0.433686 -0.182816 -6.574183 -0.480769 -0.587763 0.650689 59 59 55 255
-0.621190 -0.175754 -6.660421 -0.390655 -0.219190 0.894061 65 66 63 255
-0.586062 -0.179291 -6.644223 -0.000335 -0.636222 0.771506 81 82 81 255
-0.420469 -0.200299 -6.567782 -0.537297 -0.130970 0.833162 78 81 80 255
-0.468727 -0.197599 -6.589994 -0.589381 0.405423 0.698758 80 81 83 255
-0.426001 -0.204841 -6.570237 0.157162 0.738980 0.655140 90 92 91 255
-0.711322 -0.184958 -6.701636 -0.300598 -0.034165 0.953139 73 76 76 255
-0.422853 -0.210973 -6.568675 -0.709425 -0.436021 0.553716 60 57 55 255
-0.583320 -0.216003 -6.642267 -0.125867 -0.877616 0.462545 32 33 32 255
-0.357419 -0.234515 -6.538180 -0.856523 -0.003587 0.516097 84 89 95 255
-0.357419 -0.234515 -6.538180 -0.856523 -0.003587 0.516097 84 89 95 255
-0.357421 -0.234490 -6.538181 -0.856421 -0.002861 0.516270 84 90 95 255
-0.358177 -0.236328 -6.538494 -0.857362 -0.034423 0.513561 91 93 94 255
-0.358061 -0.238308 -6.538403 -0.694096 0.007794 0.719840 110 112 112 255
-0.356405 -0.242186 -6.537569 -0.850143 -0.194344 0.489374 78 83 86 255
-0.528234 -0.232313 -6.616662 -0.212364 0.713877 0.667293 12 13 12 255
-0.513328 -0.249445 -6.609492 -0.714572 0.062253 0.696786 93 105 120 255
-0.364828 -0.277992 -6.540757 -0.790786 -0.024516 0.611602 10 11 10 255
-0.571805 -0.270441 -6.635947 -0.554398 -0.419294 0.718913 16 17 16 255
-0.358477 -0.280091 -6.537801 -0.822882 -0.186431 0.536757 86 97 106 255
-0.678530 -0.268370 -6.684995 -0.410486 -0.367606 0.834486 64 71 75 255
-0.525306 -0.274350 -6.614520 -0.370691 -0.542909 0.753551 14 17 17 255
-0.518884 -0.273860 -6.611580 0.513779 0.235951 0.824839 15 18 20 255
-0.519396 -0.279304 -6.611712 -0.532552 -0.320623 0.783320 90 101 107 255
-0.377291 -0.287496 -6.546300 -0.540385 0.433589 0.721099 92 92 84 255
-0.524894 -0.288574 -6.614060 -0.699530 -0.187831 0.689476 106 120 129 255
-0.525008 -0.288457 -6.614115 -0.699204 -0.181587 0.691477 106 119 129 255
-0.364576 -0.298505 -6.540252 -0.706405 -0.200646 0.678773 94 94 92 255
-0.364592 -0.298502 -6.540260 -0.706402 -0.198552 0.679392 94 94 92 255
-0.363909 -0.300124 -6.539916 -0.723313 -0.022199 0.690163 99 101 100 255
-0.361290 -0.311564 -6.538496 -0.692442 0.058819 0.719072 97 107 118 255
-0.361290 -0.311564 -6.538496 -0.692442 0.058819 0.719072 97 107 118 255
-0.361836 -0.319065 -6.538604 -0.813857 -0.024800 0.580535 96 107 118 255
-0.547189 -0.322199 -6.623661 -0.527855 -0.453952 0.717842 89 100 112 255
-0.547223 -0.322088 -6.623678 -0.494979 -0.503436 0.708201 91 101 114 255
-0.524754 0.121805 -6.621783 -0.330603 0.347324 0.877535 155 157 169 255
-0.617392 0.133728 -6.664549 -0.709856 -0.436563 0.552737 124 123 118 255
-0.606759 0.123788 -6.659478 -0.530484 0.111922 0.840274 186 195 210 255
-0.631647 0.124880 -6.670928 0.844687 0.137161 0.517388 199 202 202 255
-0.615053 0.119903 -6.663213 0.445318 0.395590 0.803244 169 178 183 255
-0.522292 0.094060 -6.620126 -0.646358 -0.676128 0.353654 107 110 110 255
-0.624996 0.094025 -6.667288 -0.432027 -0.870554 0.235557 115 118 118 255
-0.664475 0.097370 -6.685481 -0.386548 -0.887915 0.249376 96 98 101 255
-0.655005 0.095045 -6.681087 -0.683740 -0.231114 0.692161 97 99 101 255
-0.556788 0.067069 -6.635455 -0.527530 -0.074753 0.846241 57 60 64 255
-0.668887 0.089206 -6.687352 -0.538798 0.100141 0.836462 127 131 128 255
-0.393677 -0.000083 -6.559278 -0.784053 0.129010 0.607139 81 97 110 255
-0.390794 -0.028072 -6.557423 -0.007524 0.577006 0.816705 140 144 144 255
-0.371610 -0.029912 -6.548579 -0.270731 0.465518 0.842614 160 162 157 255
-0.441888 -0.021871 -6.581004 -0.465728 0.324282 0.823370 187 197 203 255
-0.554821 -0.005869 -6.633167 -0.702373 -0.393171 0.593370 127 134 136 255
-0.459342 -0.025781 -6.588944 -0.400415 0.426159 0.811207 173 179 176 255
-0.645478 0.004155 -6.674988 -0.526212 -0.264716 0.808101 168 167 164 255
-0.542694 -0.020313 -6.627325 -0.087499 0.396076 0.914039 154 157 154 255
-0.352225 -0.052808 -6.539243 -0.690861 -0.622005 0.368539 137 138 139 255
-0.563952 -0.017578 -6.637138 -0.657827 -0.304489 0.688875 185 196 203 255
-0.590415 -0.017909 -6.649284 -0.203696 0.509486 0.836022 147 153 153 255
-0.439808 -0.045323 -6.579604 -0.527541 -0.639455 0.559283 112 115 117 255
-0.456364 -0.044464 -6.587223 -0.800598 -0.404615 0.441961 118 121 124 255
-0.460814 -0.046474 -6.589228 -0.286619 -0.935371 0.207197 129 133 133 255
-0.452429 -0.046517 -6.585377 -0.614532 -0.648981 0.448524 120 124 127 255
-0.447105 -0.048509 -6.582894 -0.275485 -0.760593 0.587883 123 123 122 255
-0.464361 -0.048575 -6.590817 -0.774299 -0.283360 0.565834 133 131 129 255
-0.484107 -0.046366 -6.599926 -0.750478 -0.123120 0.649326 107 102 90 255
-0.531528 -0.039587 -6.621831 -0.473712 -0.255741 0.842730 91 94 95 255
-0.462476 -0.054127 -6.589846 -0.157748 0.585275 0.795342 139 138 140 255
-0.453512 -0.053003 -6.585751 -0.444450 0.302570 0.843158 137 135 136 255
-0.452570 -0.055262 -6.585275 -0.469956 0.205697 0.858388 167 166 166 255
-0.531272 -0.042442 -6.621659 -0.135153 -0.035912 0.990174 110 112 111 255
-0.460073 -0.056871 -6.588690 -0.786598 -0.253109 0.563204 141 144 146 255
-0.460028 -0.056423 -6.588678 -0.791803 -0.135530 0.595550 151 153 154 255
-0.455095 -0.055142 -6.586437 -0.799103 -0.269682 0.537314 168 167 168 255
-0.454084 -0.057582 -6.585927 -0.111234 0.595164 0.795868 139 143 142 255
-0.569054 -0.040078 -6.639054 -0.502474 -0.579228 0.641884 110 112 114 255
-0.569050 -0.040080 -6.639052 -0.504215 -0.575655 0.643730 108 110 110 255
-0.473608 -0.056233 -6.594918 -0.479164 0.413912 0.774002 133 136 136 255
-0.463117 -0.058516 -6.590057 -0.726279 -0.384611 0.569730 127 132 134 255
-0.450035 -0.059743 -6.584026 -0.418972 0.366925 0.830559 123 128 127 255
-0.557556 -0.045127 -6.633678 -0.730973 -0.054006 0.680266 144 143 135 255
-0.563357 -0.044595 -6.636353 -0.531064 -0.760839 0.372955 114 113 107 255
-0.368612 -0.080581 -6.546241 -0.512524 -0.732130 0.448671 149 153 153 255
-0.369412 -0.079447 -6.546629 -0.488654 -0.799460 0.349401 150 153 150 255
-0.369412 -0.079447 -6.546629 -0.488654 -0.799460 0.349401 150 153 150 255
-0.649978 -0.043269 -6.676155 -0.327167 0.449460 0.831232 125 133 138 255
-0.474004 -0.069395 -6.594850 -0.596598 -0.391910 0.700341 111 115 116 255
-0.467880 -0.076676 -6.591899 -0.676504 -0.495024 0.545246 138 145 150 255
-0.460911 -0.082426 -6.588590 -0.587618 -0.717169 0.374665 55 55 47 255
-0.347852 -0.107884 -6.536190 -0.905967 -0.157361 0.393017 130 137 144 255
-0.511481 -0.087994 -6.611707 -0.753325 -0.404032 0.518903 162 171 175 255
-0.497966 -0.090209 -6.605459 0.070094 0.663069 0.745269 152 153 152 255
-0.349350 -0.111228 -6.536814 -0.670870 0.423440 0.608796 160 170 179 255
-0.365018 -0.112873 -6.543978 -0.614026 0.167547 0.771298 36 38 38 255
-0.452091 -0.122198 -6.583786 -0.337098 -0.097989 0.936356 32 35 39 255
-0.454390 -0.124039 -6.584806 -0.359877 0.068681 0.930469 29 32 32 255
-0.453345 -0.125924 -6.584291 -0.348788 0.074837 0.934209 32 37 39 255
-0.515396 -0.141318 -6.612493 0.094050 -0.002700 0.995564 30 32 32 255
-0.555745 -0.155716 -6.630748 0.184481 -0.109611 0.976705 124 130 133 255
-0.417813 -0.170637 -6.567125 -0.707252 0.025758 0.706492 149 156 161 255
-0.439779 -0.172748 -6.577172 -0.360954 0.579503 0.730677 112 117 119 255
-0.388910 -0.184661 -6.553587 -0.340361 -0.285697 0.895841 57 57 53 255
-0.387794 -0.186265 -6.553044 -0.471694 -0.198658 0.859093 71 70 66 255
-0.433340 -0.184964 -6.573984 -0.432714 -0.554841 0.710570 71 71 68 255
-0.431432 -0.184915 -6.573109 -0.148351 -0.444823 0.883246 70 69 66 255
-0.424024 -0.186314 -6.569680 -0.484208 -0.541634 0.687150 67 69 65 255
-0.448118 -0.185364 -6.580762 -0.327498 -0.741340 0.585799 75 76 73 255
-0.519540 -0.181524 -6.613633 -0.311888 -0.456503 0.833265 64 65 64 255
-0.417233 -0.195274 -6.566391 -0.717609 0.369055 0.590623 136 138 142 255
-0.573512 -0.182105 -6.638406 -0.672348 -0.018346 0.740008 119 122 123 255
-0.518088 -0.190096 -6.612803 -0.484595 0.284526 0.827171 89 89 88 255
-0.418209 -0.200546 -6.566740 -0.398537 -0.094884 0.912231 78 78 77 255
-0.417307 -0.198885 -6.566357 -0.485817 -0.231875 0.842743 106 107 106 255
-0.416135 -0.200671 -6.565785 -0.587505 -0.521436 0.618824 92 91 85 255
-0.416192 -0.198964 -6.565844 -0.647690 -0.480063 0.591639 120 119 116 255
-0.363191 -0.205321 -6.541384 -0.882836 -0.111471 0.456263 102 104 103 255
-0.468004 -0.199366 -6.589629 -0.679564 0.351703 0.643815 103 106 108 255
-0.424938 -0.202145 -6.569799 0.051329 -0.017746 0.998524 94 97 97 255
-0.616794 -0.188644 -6.658158 0.085867 0.761465 0.642493 88 89 89 255
-0.357490 -0.231994 -6.538260 -0.902554 -0.049302 0.427744 103 112 119 255
-0.517191 -0.227014 -6.611691 -0.734836 -0.099459 0.670913 123 126 127 255
-0.513189 -0.231321 -6.609772 -0.773724 -0.194330 0.602982 113 118 126 255
-0.505591 -0.247079 -6.605984 -0.549360 -0.115288 0.827594 155 157 158 255
-0.515179 -0.250275 -6.610326 -0.047334 0.797696 0.601200 86 91 99 255
-0.522354 -0.277994 -6.613095 -0.153127 -0.598656 0.786234 75 81 84 255
-0.375388 -0.287506 -6.545426 -0.536082 0.442366 0.718977 91 90 82 255
-0.360364 -0.289967 -6.538480 -0.722667 0.026205 0.690700 99 110 120 255
-0.362411 -0.310517 -6.539030 -0.721867 0.050067 0.690219 107 115 124 255
-0.517995 -0.317661 -6.610341 -0.527378 0.154232 0.835515 86 93 99 255
-0.362285 -0.322145 -6.538752 -0.852027 -0.086543 0.516294 101 111 122 255
-0.362941 -0.328543 -6.538931 -0.813436 -0.007419 0.581608 99 108 119 255
-0.362941 -0.328543 -6.538931 -0.813436 -0.007419 0.581608 99 108 119 255
-0.364769 -0.342685 -6.539503 0.115072 -0.343764 0.931979 64 65 64 255
-0.578346 0.122417 -6.646404 -0.715326 -0.099077 0.691731 197 204 213 255
-0.592784 0.121564 -6.653018 -0.740185 -0.486556 0.464102 189 199 210 255
-0.653198 0.132520 -6.680969 -0.035683 0.442450 0.896083 119 115 116 255
-0.400826 0.074106 -6.563969 -0.789256 -0.589985 0.170268 102 101 90 255
-0.672715 0.129474 -6.689873 -0.369658 0.227307 0.900935 141 140 151 255
-0.530118 0.086603 -6.623578 -0.677584 -0.684010 0.270203 145 149 144 255
-0.530118 0.086603 -6.623578 -0.677584 -0.684010 0.270203 145 149 144 255
-0.497540 0.065279 -6.608213 -0.789136 -0.086896 0.608041 95 96 83 255
-0.391951 0.039864 -6.559244 -0.630032 -0.655765 0.415972 75 83 92 255
-0.677580 0.090124 -6.691361 -0.592770 -0.695046 0.406861 137 141 147 255
-0.363467 -0.025980 -6.544914 -0.882508 0.011518 0.470157 183 186 193 255
-0.447291 -0.025319 -6.583419 -0.497147 0.419850 0.759323 170 180 181 255
-0.437983 -0.045111 -6.578770 -0.556756 -0.588441 0.586311 110 112 113 255
-0.436090 -0.044664 -6.577909 -0.555131 -0.592377 0.583883 120 122 124 255
-0.436864 -0.047907 -6.578203 -0.452352 -0.737218 0.501884 124 127 130 255
-0.466975 -0.044780 -6.592089 -0.734611 -0.595213 0.325679 124 127 128 255
-0.529157 -0.037462 -6.620783 0.061524 -0.879743 0.471451 73 74 74 255
-0.458756 -0.048136 -6.588251 -0.772023 -0.534161 0.344459 138 140 138 255
-0.454931 -0.053987 -6.586384 -0.804818 -0.442704 0.395324 146 143 146 255
-0.356542 -0.069662 -6.540905 -0.728629 -0.653967 0.203535 130 133 136 255
-0.464778 -0.057867 -6.590832 -0.742691 -0.577542 0.338903 137 142 144 255
-0.369408 -0.079462 -6.546628 -0.497369 -0.792207 0.353598 150 153 150 255
-0.472404 -0.068982 -6.594123 -0.609442 -0.400174 0.684428 111 115 116 255
-0.591236 -0.053657 -6.648983 -0.335024 -0.875112 0.349195 91 93 94 255
-0.441878 -0.079415 -6.579907 -0.698410 0.218532 0.681518 167 176 180 255
-0.347553 -0.095779 -6.536282 -0.687626 -0.695478 0.208520 104 105 110 255
-0.350974 -0.107559 -6.537629 -0.846730 0.209625 0.488984 159 170 176 255
-0.365302 -0.113210 -6.544102 -0.676477 0.090476 0.730885 41 43 45 255
-0.361855 -0.113324 -6.542517 -0.576565 0.100369 0.810863 51 54 54 255
-0.348117 -0.114794 -6.536180 -0.898704 -0.255704 0.356297 152 158 161 255
-0.406924 -0.127754 -6.562939 -0.499396 -0.168857 0.849759 55 58 61 255
-0.515191 -0.118506 -6.612832 0.130795 -0.037707 0.990692 24 26 27 255
-0.405734 -0.129641 -6.562356 -0.581252 -0.125015 0.804063 35 38 42 255
-0.395265 -0.152091 -6.557123 -0.407119 0.381997 0.829658 64 67 75 255
-0.538186 -0.158621 -6.622630 -0.680242 0.252252 0.688214 152 161 166 255
-0.437110 -0.171155 -6.575977 -0.119217 0.680642 0.722851 122 122 119 255
-0.432776 -0.170456 -6.574000 -0.577453 0.335326 0.744382 146 153 159 255
-0.522340 -0.178920 -6.614968 -0.320177 -0.842296 0.433618 55 55 52 255
-0.526957 -0.178417 -6.617098 -0.510573 0.117385 0.851784 59 60 55 255
-0.417936 -0.188656 -6.566840 -0.443345 0.433356 0.784633 102 104 105 255
-0.584267 -0.178825 -6.643407 -0.455830 -0.515539 0.725561 67 69 67 255
-0.356760 -0.197078 -6.538588 -0.521228 0.618175 0.588372 104 101 97 255
-0.415549 -0.200535 -6.565518 -0.507925 -0.662978 0.549975 86 86 80 255
-0.515925 -0.194413 -6.611728 -0.796978 -0.121737 0.591613 100 104 106 255
-0.410833 -0.214395 -6.563090 -0.807579 -0.143307 0.572083 89 89 87 255
-0.514709 -0.210162 -6.610871 -0.793504 0.000188 0.608564 76 78 76 255
-0.514707 -0.210166 -6.610870 -0.793457 0.003197 0.608618 76 78 76 255
-0.357279 -0.231804 -6.538167 -0.856186 -0.391871 0.336725 104 113 121 255
-0.359328 -0.283917 -6.538119 -0.887626 -0.266035 0.375959 92 104 115 255
-0.374283 -0.287389 -6.544921 -0.501171 0.493540 0.710806 91 90 83 255
-0.366358 -0.311573 -6.540823 -0.913161 0.013208 0.407386 100 101 100 255
-0.366358 -0.311573 -6.540823 -0.913161 0.013208 0.407386 100 101 100 255
-0.519779 -0.319883 -6.611117 -0.561240 0.143047 0.815197 93 105 115 255
-0.519751 -0.319905 -6.611104 -0.561760 0.174677 0.808649 93 104 115 255
-0.504903 -0.333255 -6.604033 -0.670059 0.238767 0.702859 149 148 147 255
-0.505832 -0.341108 -6.604310 -0.573607 0.137027 0.807588 131 139 144 255
-0.526349 -0.341658 -6.613721 -0.364773 -0.521918 0.771065 87 96 101 255
-0.587170 -0.345340 -6.641581 0.075518 0.763257 0.641666 70 74 77 255
-0.602014 0.123462 -6.657293 -0.086047 -0.996263 -0.007457 188 196 212 255
-0.548557 0.051104 -6.631372 -0.064897 -0.997118 0.039283 65 79 94 255
-0.332133 0.001152 -6.531040 0.259830 -0.145667 0.954604 181 181 182 255
-0.434309 -0.044555 -6.577093 -0.601015 -0.571578 0.558641 113 115 117 255
-0.454295 -0.045014 -6.586262 0.076720 -0.940371 0.331385 103 108 109 255
-0.478133 -0.043734 -6.597233 -0.578315 -0.776316 0.250767 104 104 100 255
-0.504157 -0.067962 -6.608724 -0.778669 -0.438811 0.448464 110 120 131 255
-0.348287 -0.124815 -6.536068 -0.929333 -0.075168 0.361510 153 153 153 255
-0.386065 -0.184334 -6.552287 -0.413824 -0.554520 0.721981 59 58 54 255
-0.413663 -0.200876 -6.564646 -0.672017 -0.499149 0.547032 78 79 76 255
-0.514074 -0.230256 -6.610198 -0.762610 -0.327655 0.557735 120 123 127 255
-0.356249 -0.247063 -6.537405 -0.920295 0.065149 0.385763 96 102 104 255
-0.358935 -0.271526 -6.538174 -0.926309 -0.051994 0.373160 76 82 88 255
-0.530708 -0.276086 -6.616967 -0.002322 0.100914 0.994892 79 84 85 255
-0.517999 -0.301237 -6.610654 -0.796984 -0.068574 0.600095 99 111 122 255
-0.361087 -0.305196 -6.538523 -0.925236 -0.024246 0.378618 98 111 122 255
-0.523836 -0.318811 -6.613001 -0.559260 -0.433339 0.706715 101 115 125 255
-0.547268 -0.322553 -6.623690 -0.441789 -0.572994 0.690290 98 107 117 255
-0.547154 -0.322195 -6.623644 -0.523289 -0.462574 0.715677 104 112 123 255
-0.547223 -0.322088 -6.623678 -0.494979 -0.503436 0.708201 105 114 124 255
-0.364594 -0.329519 -6.539672 -0.904366 -0.158888 0.396077 105 110 118 255
-0.503009 -0.334480 -6.603139 -0.675115 -0.452187 0.582878 131 136 138 255
-0.671019 0.126407 -6.689036 -0.292192 0.334742 0.895864 174 181 192 255
-0.512165 0.064131 -6.614907 -0.574880 -0.020450 0.817982 63 70 77 255
-0.449954 -0.021246 -6.584720 -0.631873 0.347141 0.692986 184 184 185 255
-0.428253 -0.024339 -6.574696 0.302245 0.487105 0.819376 155 154 147 255
-0.444931 -0.031499 -6.582218 -0.819324 0.114174 0.561848 125 131 128 255
-0.649572 -0.005265 -6.676690 0.232375 -0.095561 0.967921 152 161 168 255
-0.350838 -0.058712 -6.538494 -0.862107 0.208949 0.461640 164 164 165 255
-0.432553 -0.047528 -6.576230 -0.587175 -0.575677 0.569053 125 127 129 255
-0.430785 -0.047817 -6.575413 -0.600602 -0.574054 0.556542 128 130 133 255
-0.476679 -0.044714 -6.596547 -0.016518 -0.993118 0.115953 106 106 104 255
-0.435496 -0.049626 -6.577542 -0.539436 -0.527816 0.656064 149 149 148 255
-0.433141 -0.050044 -6.576452 -0.490207 -0.741243 0.458536 133 134 133 255
-0.430215 -0.050022 -6.575109 -0.544479 -0.258686 0.797887 149 149 147 255
-0.482462 -0.048152 -6.599137 -0.691462 0.266124 0.671608 128 120 116 255
-0.457459 -0.051556 -6.587591 -0.838838 0.056655 0.541425 126 124 128 255
-0.433819 -0.054292 -6.576683 -0.532782 0.307928 0.788241 135 134 132 255
-0.460840 -0.061115 -6.588962 -0.117253 0.583145 0.803862 128 132 131 255
-0.431875 -0.079216 -6.575317 -0.740348 0.091908 0.665911 132 136 139 255
-0.347665 -0.090987 -6.536424 -0.821320 -0.552504 0.142033 122 126 132 255
-0.519013 -0.077793 -6.615359 -0.566983 -0.536320 0.625212 53 63 63 255
-0.607364 -0.066750 -6.656140 -0.556003 -0.740087 0.378327 20 21 20 255
-0.339077 -0.113098 -6.532061 -0.269564 0.158521 0.949845 209 209 209 255
-0.405422 -0.125841 -6.562285 -0.570959 -0.135165 0.809776 44 48 52 255
-0.405396 -0.127572 -6.562241 -0.571625 -0.152027 0.806308 52 56 60 255
-0.403713 -0.126719 -6.561484 -0.610151 -0.273176 0.743700 61 65 69 255
-0.405134 -0.127822 -6.562116 -0.557465 -0.144931 0.817452 47 51 55 255
-0.403697 -0.128440 -6.561444 -0.575315 -0.218848 0.788110 62 66 70 255
