ply
format ascii 1.0
element vertex 750
property float x
property float y
property float z
property uchar red
property uchar green
property uchar blue
property uchar alpha
end_header
-0.0385327111592 0.0168812839977 -6.61115960781 177 162 147 255 
-0.0364466105078 0.0168812839977 -6.6134712368 177 162 147 255 
-0.0343605098565 0.0168812839977 -6.61580778243 177 162 147 255 
-0.0322744092051 0.0168812839977 -6.6181692447 177 162 147 255 
-0.0301883085537 0.0168812839977 -6.62055562361 173 155 131 255 
-0.0281022079023 0.0168812839977 -6.62296691917 173 155 131 255 
-0.026016107251 0.0168812839977 -6.62540313137 174 153 124 255 
-0.0239300065996 0.0168812839977 -6.62786426022 165 140 106 255 
-0.0218439059482 0.0168812839977 -6.63035030571 187 160 117 255 
-0.0197578052968 0.0168812839977 -6.63286126784 187 160 117 255 
-0.0176717046454 0.0168812839977 -6.63539714661 187 160 117 255 
-0.0155856039941 0.0168812839977 -6.63795794203 187 160 117 255 
-0.0134995033427 0.0168812839977 -6.64054365409 187 160 117 255 
-0.0114134026913 0.0168812839977 -6.6431542828 216 191 145 255 
-0.00932730203994 0.0168812839977 -6.64578982815 216 191 145 255 
-0.00724120138857 0.0168812839977 -6.64845029014 216 191 145 255 
-0.00515510073719 0.0168812839977 -6.65113566878 216 191 145 255 
-0.00306900008582 0.0168812839977 -6.65384596406 204 179 133 255 
-0.313897997141 0.0203785658283 -6.52456819634 153 159 164 255 
-0.31181189649 0.0203785658283 -6.52359138299 153 159 164 255 
-0.309725795838 0.0203785658283 -6.52263948628 153 159 164 255 
-0.307639695187 0.0203785658283 -6.52171250622 153 159 164 255 
-0.305553594535 0.0203785658283 -6.52081044281 153 159 164 255 
-0.303467493884 0.0203785658283 -6.51993329603 146 150 155 255 
-0.301381393233 0.0203785658283 -6.5190810659 146 150 155 255 
-0.299295292581 0.0203785658283 -6.51825375242 146 150 155 255 
-0.29720919193 0.0203785658283 -6.51745135557 146 150 155 255 
-0.295123091278 0.0203785658283 -6.51667387537 146 150 155 255 
-0.293036990627 0.0203785658283 -6.51592131182 146 150 155 255 
-0.290950889976 0.0203785658283 -6.5151936649 146 150 155 255 
-0.288864789324 0.0203785658283 -6.51449093463 146 150 155 255 
-0.286778688673 0.0203785658283 -6.51381312101 146 150 155 255 
-0.284692588022 0.0203785658283 -6.51316022402 146 150 155 255 
-0.28260648737 0.0203785658283 -6.51253224368 146 150 155 255 
-0.280520386719 0.0203785658283 -6.51192917999 146 150 155 255 
-0.278434286067 0.0203785658283 -6.51135103294 146 150 155 255 
-0.276348185416 0.0203785658283 -6.51079780253 146 150 155 255 
-0.274262084765 0.0203785658283 -6.51026948876 146 150 155 255 
-0.272175984113 0.0203785658283 -6.50976609164 146 150 155 255 
-0.270089883462 0.0203785658283 -6.50928761116 159 161 163 255 
-0.268003782811 0.0203785658283 -6.50883404733 159 161 163 255 
-0.265917682159 0.0203785658283 -6.50840540013 159 161 163 255 
-0.263831581508 0.0203785658283 -6.50800166959 159 161 163 255 
-0.261745480856 0.0203785658283 -6.50762285568 159 161 163 255 
-0.259659380205 0.0203785658283 -6.50726895842 159 161 163 255 
-0.257573279554 0.0203785658283 -6.5069399778 159 161 163 255 
-0.255487178902 0.0203785658283 -6.50663591383 174 176 177 255 
-0.253401078251 0.0203785658283 -6.5063567665 172 174 177 255 
-0.2513149776 0.0203785658283 -6.50610253581 172 174 177 255 
-0.249228876948 0.0203785658283 -6.50587322176 172 174 177 255 
-0.247142776297 0.0203785658283 -6.50566882436 172 174 177 255 
-0.245056675645 0.0203785658283 -6.50548934361 185 189 190 255 
-0.242970574994 0.0203785658283 -6.50533477949 185 189 190 255 
-0.240884474343 0.0203785658283 -6.50520513202 185 189 190 255 
-0.238798373691 0.0203785658283 -6.5051004012 185 189 190 255 
-0.23671227304 0.0203785658283 -6.50502058701 185 189 190 255 
-0.234626172389 0.0203785658283 -6.50496568947 185 189 190 255 
-0.232540071737 0.0203785658283 -6.50493570858 185 189 190 255 
-0.230453971086 0.0203785658283 -6.50493064432 185 189 190 255 
-0.228367870434 0.0203785658283 -6.50495049671 185 189 190 255 
-0.226281769783 0.0203785658283 -6.50499526575 195 197 196 255 
-0.224195669132 0.0203785658283 -6.50506495142 195 197 196 255 
-0.22210956848 0.0203785658283 -6.50515955375 195 197 196 255 
-0.220023467829 0.0203785658283 -6.50527907271 195 197 196 255 
-0.217937367178 0.0203785658283 -6.50542350832 195 197 196 255 
-0.215851266526 0.0203785658283 -6.50559286057 195 197 196 255 
-0.213765165875 0.0203785658283 -6.50578712946 195 197 196 255 
-0.211679065223 0.0203785658283 -6.506006315 195 197 196 255 
-0.209592964572 0.0203785658283 -6.50625041718 195 197 196 255 
-0.207506863921 0.0203785658283 -6.50651943601 205 203 196 255 
-0.205420763269 0.0203785658283 -6.50681337148 205 203 196 255 
-0.203334662618 0.0203785658283 -6.50713222359 205 203 196 255 
-0.201248561967 0.0203785658283 -6.50747599234 192 192 188 255 
-0.199162461315 0.0203785658283 -6.50784467774 178 180 180 255 
-0.197076360664 0.0203785658283 -6.50823827978 171 175 176 255 
-0.194990260012 0.0203785658283 -6.50865679847 171 175 176 255 
-0.192904159361 0.0203785658283 -6.5091002338 171 175 176 255 
-0.19081805871 0.0203785658283 -6.50956858577 171 175 176 255 
-0.188731958058 0.0203785658283 -6.51006185439 182 184 183 255 
-0.186645857407 0.0203785658283 -6.51058003965 182 184 183 255 
-0.184559756756 0.0203785658283 -6.51112314155 202 201 195 255 
-0.182473656104 0.0203785658283 -6.5116911601 216 213 204 255 
-0.180387555453 0.0203785658283 -6.51228409528 224 220 210 255 
-0.178301454801 0.0203785658283 -6.51290194712 224 220 210 255 
-0.17621535415 0.0203785658283 -6.51354471559 225 221 209 255 
-0.174129253499 0.0203785658283 -6.51421240071 225 221 209 255 
-0.172043152847 0.0203785658283 -6.51490500248 225 221 209 255 
-0.169957052196 0.0203785658283 -6.51562252089 225 221 209 255 
-0.167870951545 0.0203785658283 -6.51636495594 225 221 209 255 
-0.165784850893 0.0203785658283 -6.51713230763 225 221 209 255 
-0.163698750242 0.0203785658283 -6.51792457597 211 208 198 255 
-0.16161264959 0.0203785658283 -6.51874176095 197 196 187 255 
-0.159526548939 0.0203785658283 -6.51958386257 197 196 187 255 
-0.157440448288 0.0203785658283 -6.52045088084 197 196 187 255 
-0.155354347636 0.0203785658283 -6.52134281575 197 196 187 255 
-0.153268246985 0.0203785658283 -6.52225966731 205 203 192 255 
-0.151182146334 0.0203785658283 -6.5232014355 205 203 192 255 
-0.149096045682 0.0203785658283 -6.52416812035 205 203 192 255 
-0.147009945031 0.0203785658283 -6.52515972183 204 200 188 255 
-0.144923844379 0.0203785658283 -6.52617623996 204 196 182 255 
-0.142837743728 0.0203785658283 -6.52721767473 204 196 182 255 
-0.140751643077 0.0203785658283 -6.52828402615 201 192 178 255 
-0.138665542425 0.0203785658283 -6.5293752942 201 192 178 255 
-0.136579441774 0.0203785658283 -6.53049147891 201 192 178 255 
-0.134493341123 0.0203785658283 -6.53163258025 184 176 165 255 
-0.132407240471 0.0203785658283 -6.53279859824 152 148 141 255 
-0.13032113982 0.0203785658283 -6.53398953287 143 140 135 255 
-0.128235039168 0.0203785658283 -6.53520538415 143 140 135 255 
-0.126148938517 0.0203785658283 -6.53644615207 143 140 135 255 
-0.124062837866 0.0203785658283 -6.53771183663 143 140 135 255 
-0.121976737214 0.0203785658283 -6.53900243784 143 140 135 255 
-0.119890636563 0.0203785658283 -6.54031795569 143 140 135 255 
-0.117804535912 0.0203785658283 -6.54165839018 150 148 142 255 
-0.11571843526 0.0203785658283 -6.54302374132 150 148 142 255 
-0.113632334609 0.0203785658283 -6.5444140091 150 148 142 255 
-0.111546233957 0.0203785658283 -6.54582919352 150 148 142 255 
-0.109460133306 0.0203785658283 -6.54726929459 150 148 142 255 
-0.107374032655 0.0203785658283 -6.5487343123 160 158 151 255 
-0.105287932003 0.0203785658283 -6.55022424665 160 158 151 255 
-0.103201831352 0.0203785658283 -6.55173909765 160 158 151 255 
-0.101115730701 0.0203785658283 -6.55327886529 181 171 155 255 
-0.0990296300491 0.0203785658283 -6.55484354958 181 171 155 255 
-0.0969435293977 0.0203785658283 -6.5564331505 198 183 161 255 
-0.0948574287464 0.0203785658283 -6.55804766808 196 177 153 255 
-0.092771328095 0.0203785658283 -6.55968710229 196 177 153 255 
-0.0906852274436 0.0203785658283 -6.56135145315 196 177 153 255 
-0.0885991267922 0.0203785658283 -6.56304072065 196 176 152 255 
-0.0865130261409 0.0203785658283 -6.56475490479 196 176 152 255 
-0.0844269254895 0.0203785658283 -6.56649400558 196 176 152 255 
-0.0823408248381 0.0203785658283 -6.56825802302 179 160 140 255 
-0.0802547241867 0.0203785658283 -6.57004695709 179 160 140 255 
-0.0781686235354 0.0203785658283 -6.57186080781 179 160 140 255 
-0.076082522884 0.0203785658283 -6.57369957517 179 160 140 255 
-0.0739964222326 0.0203785658283 -6.57556325918 170 153 134 255 
-0.0719103215812 0.0203785658283 -6.57745185983 159 143 126 255 
-0.0698242209299 0.0203785658283 -6.57936537712 174 159 140 255 
-0.0677381202785 0.0203785658283 -6.58130381106 174 159 140 255 
-0.0656520196271 0.0203785658283 -6.58326716163 195 182 160 255 
-0.0635659189757 0.0203785658283 -6.58525542886 210 199 177 255 
-0.0614798183244 0.0203785658283 -6.58726861272 223 211 188 255 
-0.059393717673 0.0203785658283 -6.58930671323 210 196 176 255 
-0.0573076170216 0.0203785658283 -6.59136973039 189 175 159 255 
-0.0552215163702 0.0203785658283 -6.59345766418 177 162 147 255 
-0.0531354157188 0.0203785658283 -6.59557051462 177 162 147 255 
-0.0510493150675 0.0203785658283 -6.59770828171 177 162 147 255 
-0.0489632144161 0.0203785658283 -6.59987096543 177 162 147 255 
-0.0468771137647 0.0203785658283 -6.60205856581 177 162 147 255 
-0.0447910131133 0.0203785658283 -6.60427108282 177 162 147 255 
-0.042704912462 0.0203785658283 -6.60650851648 177 162 147 255 
-0.0406188118106 0.0203785658283 -6.60877086678 177 162 147 255 
-0.0385327111592 0.0203785658283 -6.61105813372 177 162 147 255 
-0.0364466105078 0.0203785658283 -6.61337031731 177 162 147 255 
-0.0343605098565 0.0203785658283 -6.61570741754 177 162 147 255 
-0.0322744092051 0.0203785658283 -6.61806943442 166 147 125 255 
-0.0301883085537 0.0203785658283 -6.62045636793 173 155 131 255 
-0.0281022079023 0.0203785658283 -6.6228682181 165 141 106 255 
-0.026016107251 0.0203785658283 -6.6253049849 165 141 106 255 
-0.0239300065996 0.0203785658283 -6.62776666835 187 160 117 255 
-0.0218439059482 0.0203785658283 -6.63025326844 187 160 117 255 
-0.0197578052968 0.0203785658283 -6.63276478518 187 160 117 255 
-0.0176717046454 0.0203785658283 -6.63530121856 187 160 117 255 
-0.0155856039941 0.0203785658283 -6.63786256858 187 160 117 255 
-0.0134995033427 0.0203785658283 -6.64044883524 216 191 145 255 
-0.0114134026913 0.0203785658283 -6.64306001855 216 191 145 255 
-0.00932730203994 0.0203785658283 -6.64569611851 216 191 145 255 
-0.00724120138857 0.0203785658283 -6.6483571351 216 191 145 255 
-0.00515510073719 0.0203785658283 -6.65104306834 229 205 160 255 
-0.00306900008582 0.0203785658283 -6.65375391822 204 179 133 255 
-0.313897997141 0.0238758476589 -6.52439312135 146 150 155 255 
-0.31181189649 0.0238758476589 -6.5234168626 146 150 155 255 
-0.309725795838 0.0238758476589 -6.5224655205 146 150 155 255 
-0.307639695187 0.0238758476589 -6.52153909505 146 150 155 255 
-0.305553594535 0.0238758476589 -6.52063758623 146 150 155 255 
-0.303467493884 0.0238758476589 -6.51976099406 146 150 155 255 
-0.301381393233 0.0238758476589 -6.51890931853 146 150 155 255 
-0.299295292581 0.0238758476589 -6.51808255965 146 150 155 255 
-0.29720919193 0.0238758476589 -6.51728071741 146 150 155 255 
-0.295123091278 0.0238758476589 -6.51650379181 146 150 155 255 
-0.293036990627 0.0238758476589 -6.51575178286 146 150 155 255 
-0.290950889976 0.0238758476589 -6.51502469055 146 150 155 255 
-0.288864789324 0.0238758476589 -6.51432251488 146 150 155 255 
-0.286778688673 0.0238758476589 -6.51364525586 146 150 155 255 
-0.284692588022 0.0238758476589 -6.51299291348 146 150 155 255 
-0.28260648737 0.0238758476589 -6.51236548775 146 150 155 255 
-0.280520386719 0.0238758476589 -6.51176297865 146 150 155 255 
-0.278434286067 0.0238758476589 -6.5111853862 146 150 155 255 
-0.276348185416 0.0238758476589 -6.5106327104 146 150 155 255 
-0.274262084765 0.0238758476589 -6.51010495124 146 150 155 255 
-0.272175984113 0.0238758476589 -6.50960210872 146 150 155 255 
-0.270089883462 0.0238758476589 -6.50912418284 146 150 155 255 
-0.268003782811 0.0238758476589 -6.50867117361 146 150 155 255 
-0.265917682159 0.0238758476589 -6.50824308102 159 161 163 255 
-0.263831581508 0.0238758476589 -6.50783990508 159 161 163 255 
-0.261745480856 0.0238758476589 -6.50746164578 159 161 163 255 
-0.259659380205 0.0238758476589 -6.50710830312 159 161 163 255 
-0.257573279554 0.0238758476589 -6.5067798771 159 161 163 255 
-0.255487178902 0.0238758476589 -6.50647636773 174 176 177 255 
-0.253401078251 0.0238758476589 -6.506197775 172 174 177 255 
-0.2513149776 0.0238758476589 -6.50594409892 172 174 177 255 
-0.249228876948 0.0238758476589 -6.50571533948 172 174 177 255 
-0.247142776297 0.0238758476589 -6.50551149668 172 174 177 255 
-0.245056675645 0.0238758476589 -6.50533257053 185 189 190 255 
-0.242970574994 0.0238758476589 -6.50517856102 185 189 190 255 
-0.240884474343 0.0238758476589 -6.50504946815 185 189 190 255 
-0.238798373691 0.0238758476589 -6.50494529193 194 196 195 255 
-0.23671227304 0.0238758476589 -6.50486603235 194 196 195 255 
-0.234626172389 0.0238758476589 -6.50481168941 194 196 195 255 
-0.232540071737 0.0238758476589 -6.50478226312 194 196 195 255 
-0.230453971086 0.0238758476589 -6.50477775347 194 196 195 255 
-0.228367870434 0.0238758476589 -6.50479816046 194 196 195 255 
-0.226281769783 0.0238758476589 -6.5048434841 194 196 195 255 
-0.224195669132 0.0238758476589 -6.50491372438 194 196 195 255 
-0.22210956848 0.0238758476589 -6.5050088813 194 196 195 255 
-0.220023467829 0.0238758476589 -6.50512895487 194 196 195 255 
-0.217937367178 0.0238758476589 -6.50527394508 199 200 197 255 
-0.215851266526 0.0238758476589 -6.50544385194 202 200 194 255 
-0.213765165875 0.0238758476589 -6.50563867543 202 200 194 255 
-0.211679065223 0.0238758476589 -6.50585841558 202 200 194 255 
-0.209592964572 0.0238758476589 -6.50610307236 207 204 197 255 
-0.207506863921 0.0238758476589 -6.50637264579 207 204 197 255 
-0.205420763269 0.0238758476589 -6.50666713586 207 204 197 255 
-0.203334662618 0.0238758476589 -6.50698654258 197 196 191 255 
-0.201248561967 0.0238758476589 -6.50733086593 197 196 191 255 
-0.199162461315 0.0238758476589 -6.50770010594 181 184 183 255 
-0.197076360664 0.0238758476589 -6.50809426258 173 177 177 255 
-0.194990260012 0.0238758476589 -6.50851333587 173 177 177 255 
-0.192904159361 0.0238758476589 -6.5089573258 177 180 179 255 
-0.19081805871 0.0238758476589 -6.50942623238 177 180 179 255 
-0.188731958058 0.0238758476589 -6.5099200556 177 180 179 255 
-0.186645857407 0.0238758476589 -6.51043879546 188 189 186 255 
-0.184559756756 0.0238758476589 -6.51098245197 200 200 195 255 
-0.182473656104 0.0238758476589 -6.51155102512 209 208 200 255 
-0.180387555453 0.0238758476589 -6.51214451491 220 217 206 255 
-0.178301454801 0.0238758476589 -6.51276292135 223 219 208 255 
-0.17621535415 0.0238758476589 -6.51340624443 225 220 209 255 
-0.174129253499 0.0238758476589 -6.51407448415 225 220 209 255 
-0.172043152847 0.0238758476589 -6.51476764052 225 220 209 255 
-0.169957052196 0.0238758476589 -6.51548571353 225 220 208 255 
-0.167870951545 0.0238758476589 -6.51622870318 225 220 208 255 
-0.165784850893 0.0238758476589 -6.51699660948 225 220 208 255 
-0.163698750242 0.0238758476589 -6.51778943242 215 212 201 255 
-0.16161264959 0.0238758476589 -6.518607172 201 199 190 255 
-0.159526548939 0.0238758476589 -6.51944982823 201 199 190 255 
-0.157440448288 0.0238758476589 -6.5203174011 201 199 190 255 
-0.155354347636 0.0238758476589 -6.52120989062 205 203 192 255 
-0.153268246985 0.0238758476589 -6.52212729677 205 203 192 255 
-0.151182146334 0.0238758476589 -6.52306961957 213 208 197 255 
-0.149096045682 0.0238758476589 -6.52403685902 213 208 197 255 
-0.147009945031 0.0238758476589 -6.52502901511 213 208 197 255 
-0.144923844379 0.0238758476589 -6.52604608784 211 205 193 255 
-0.142837743728 0.0238758476589 -6.52708807721 206 198 184 255 
-0.140751643077 0.0238758476589 -6.52815498323 206 198 184 255 
-0.138665542425 0.0238758476589 -6.5292468059 201 192 179 255 
-0.136579441774 0.0238758476589 -6.5303635452 201 192 179 255 
-0.134493341123 0.0238758476589 -6.53150520115 201 192 179 255 
-0.132407240471 0.0238758476589 -6.53267177374 151 146 139 255 
-0.13032113982 0.0238758476589 -6.53386326298 135 132 128 255 
-0.128235039168 0.0238758476589 -6.53507966886 135 132 128 255 
-0.126148938517 0.0238758476589 -6.53632099138 148 145 140 255 
-0.124062837866 0.0238758476589 -6.53758723055 148 145 140 255 
-0.121976737214 0.0238758476589 -6.53887838636 148 145 140 255 
-0.119890636563 0.0238758476589 -6.54019445881 148 146 140 255 
-0.117804535912 0.0238758476589 -6.54153544791 148 146 140 255 
-0.11571843526 0.0238758476589 -6.54290135365 148 146 140 255 
-0.113632334609 0.0238758476589 -6.54429217603 153 151 144 255 
-0.111546233957 0.0238758476589 -6.54570791506 153 151 144 255 
-0.109460133306 0.0238758476589 -6.54714857073 153 151 144 255 
-0.107374032655 0.0238758476589 -6.54861414304 153 151 144 255 
-0.105287932003 0.0238758476589 -6.550104632 153 151 144 255 
-0.103201831352 0.0238758476589 -6.5516200376 153 151 144 255 
-0.101115730701 0.0238758476589 -6.55316035984 181 171 155 255 
-0.0990296300491 0.0238758476589 -6.55472559873 198 183 161 255 
-0.0969435293977 0.0238758476589 -6.55631575426 198 183 161 255 
-0.0948574287464 0.0238758476589 -6.55793082644 196 177 153 255 
-0.092771328095 0.0238758476589 -6.55957081525 196 177 153 255 
-0.0906852274436 0.0238758476589 -6.56123572072 196 177 153 255 
-0.0885991267922 0.0238758476589 -6.56292554282 196 177 153 255 
-0.0865130261409 0.0238758476589 -6.56464028157 196 177 153 255 
-0.0844269254895 0.0238758476589 -6.56637993696 196 176 152 255 
-0.0823408248381 0.0238758476589 -6.568144509 196 176 152 255 
-0.0802547241867 0.0238758476589 -6.56993399767 196 176 152 255 
-0.0781686235354 0.0238758476589 -6.571748403 179 160 140 255 
-0.076082522884 0.0238758476589 -6.57358772496 179 160 140 255 
-0.0739964222326 0.0238758476589 -6.57545196357 167 149 131 255 
-0.0719103215812 0.0238758476589 -6.57734111882 159 143 126 255 
-0.0698242209299 0.0238758476589 -6.57925519072 159 143 126 255 
-0.0677381202785 0.0238758476589 -6.58119417926 174 160 141 255 
-0.0656520196271 0.0238758476589 -6.58315808444 174 160 141 255 
-0.0635659189757 0.0238758476589 -6.58514690627 192 180 156 255 
-0.0614798183244 0.0238758476589 -6.58716064474 190 178 160 255 
-0.059393717673 0.0238758476589 -6.58919929985 177 162 147 255 
-0.0573076170216 0.0238758476589 -6.59126287161 177 162 147 255 
-0.0552215163702 0.0238758476589 -6.59335136001 177 162 147 255 
-0.0531354157188 0.0238758476589 -6.59546476505 177 162 147 255 
-0.0510493150675 0.0238758476589 -6.59760308674 177 162 147 255 
-0.0489632144161 0.0238758476589 -6.59976632507 177 162 147 255 
-0.0468771137647 0.0238758476589 -6.60195448004 177 162 147 255 
-0.0447910131133 0.0238758476589 -6.60416755166 177 162 147 255 
-0.042704912462 0.0238758476589 -6.60640553992 177 162 147 255 
-0.0406188118106 0.0238758476589 -6.60866844483 177 162 147 255 
-0.0385327111592 0.0238758476589 -6.61095626637 177 162 147 255 
-0.0364466105078 0.0238758476589 -6.61326900456 177 162 147 255 
-0.0343605098565 0.0238758476589 -6.6156066594 166 147 125 255 
-0.0322744092051 0.0238758476589 -6.61796923088 177 155 124 255 
-0.0301883085537 0.0238758476589 -6.620356719 168 142 105 255 
-0.0281022079023 0.0238758476589 -6.62276912376 187 160 117 255 
-0.026016107251 0.0238758476589 -6.62520644517 187 160 117 255 
-0.0239300065996 0.0238758476589 -6.62766868322 187 160 117 255 
-0.0218439059482 0.0238758476589 -6.63015583792 187 160 117 255 
-0.0197578052968 0.0238758476589 -6.63266790926 187 160 117 255 
-0.0176717046454 0.0238758476589 -6.63520489724 187 160 117 255 
-0.0155856039941 0.0238758476589 -6.63776680187 216 191 145 255 
-0.0134995033427 0.0238758476589 -6.64035362313 216 191 145 255 
-0.0114134026913 0.0238758476589 -6.64296536105 216 191 145 255 
-0.00932730203994 0.0238758476589 -6.6456020156 216 191 145 255 
-0.00724120138857 0.0238758476589 -6.6482635868 229 205 160 255 
-0.00515510073719 0.0238758476589 -6.65095007465 204 179 133 255 
-0.00306900008582 0.0238758476589 -6.65366147913 204 179 133 255 
-0.313897997141 0.0273731294894 -6.5242176531 146 150 155 255 
-0.31181189649 0.0273731294894 -6.52324194896 146 150 155 255 
-0.309725795838 0.0273731294894 -6.52229116146 146 150 155 255 
-0.307639695187 0.0273731294894 -6.52136529061 146 150 155 255 
-0.305553594535 0.0273731294894 -6.5204643364 146 150 155 255 
-0.303467493884 0.0273731294894 -6.51958829883 146 150 155 255 
-0.301381393233 0.0273731294894 -6.51873717791 146 150 155 255 
-0.299295292581 0.0273731294894 -6.51791097363 146 150 155 255 
-0.29720919193 0.0273731294894 -6.51710968599 146 150 155 255 
-0.295123091278 0.0273731294894 -6.516333315 146 150 155 255 
-0.293036990627 0.0273731294894 -6.51558186065 146 150 155 255 
-0.290950889976 0.0273731294894 -6.51485532294 146 150 155 255 
-0.288864789324 0.0273731294894 -6.51415370188 146 150 155 255 
-0.286778688673 0.0273731294894 -6.51347699746 146 150 155 255 
-0.284692588022 0.0273731294894 -6.51282520968 146 150 155 255 
-0.28260648737 0.0273731294894 -6.51219833855 146 150 155 255 
-0.280520386719 0.0273731294894 -6.51159638406 146 150 155 255 
-0.278434286067 0.0273731294894 -6.51101934621 146 150 155 255 
-0.276348185416 0.0273731294894 -6.51046722501 146 150 155 255 
-0.274262084765 0.0273731294894 -6.50994002045 146 150 155 255 
-0.272175984113 0.0273731294894 -6.50943773254 146 150 155 255 
-0.270089883462 0.0273731294894 -6.50896036127 146 150 155 255 
-0.268003782811 0.0273731294894 -6.50850790664 146 150 155 255 
-0.265917682159 0.0273731294894 -6.50808036865 146 150 155 255 
-0.263831581508 0.0273731294894 -6.50767774731 146 150 155 255 
-0.261745480856 0.0273731294894 -6.50730004261 159 161 163 255 
-0.259659380205 0.0273731294894 -6.50694725456 159 161 163 255 
-0.257573279554 0.0273731294894 -6.50661938315 154 153 153 255 
-0.255487178902 0.0273731294894 -6.50631642838 164 164 164 255 
-0.253401078251 0.0273731294894 -6.50603839025 164 164 164 255 
-0.2513149776 0.0273731294894 -6.50578526877 164 164 164 255 
-0.249228876948 0.0273731294894 -6.50555706394 180 181 181 255 
-0.247142776297 0.0273731294894 -6.50535377574 180 181 181 255 
-0.245056675645 0.0273731294894 -6.50517540419 180 181 181 255 
-0.242970574994 0.0273731294894 -6.50502194928 194 196 195 255 
-0.240884474343 0.0273731294894 -6.50489341102 194 196 195 255 
-0.238798373691 0.0273731294894 -6.5047897894 199 200 197 255 
-0.23671227304 0.0273731294894 -6.50471108442 199 200 197 255 
-0.234626172389 0.0273731294894 -6.50465729609 199 200 197 255 
-0.232540071737 0.0273731294894 -6.5046284244 199 200 197 255 
-0.230453971086 0.0273731294894 -6.50462446935 199 200 197 255 
-0.228367870434 0.0273731294894 -6.50464543095 199 200 197 255 
-0.226281769783 0.0273731294894 -6.50469130919 199 200 197 255 
-0.224195669132 0.0273731294894 -6.50476210408 199 200 197 255 
-0.22210956848 0.0273731294894 -6.5048578156 199 200 197 255 
-0.220023467829 0.0273731294894 -6.50497844377 199 200 197 255 
-0.217937367178 0.0273731294894 -6.50512398859 202 200 194 255 
-0.215851266526 0.0273731294894 -6.50529445005 202 200 194 255 
-0.213765165875 0.0273731294894 -6.50548982815 202 200 194 255 
-0.211679065223 0.0273731294894 -6.50571012289 202 200 194 255 
-0.209592964572 0.0273731294894 -6.50595533428 207 204 197 255 
-0.207506863921 0.0273731294894 -6.50622546231 207 204 197 255 
-0.205420763269 0.0273731294894 -6.50652050699 195 194 189 255 
-0.203334662618 0.0273731294894 -6.5068404683 195 194 189 255 
-0.201248561967 0.0273731294894 -6.50718534627 186 186 182 255 
-0.199162461315 0.0273731294894 -6.50755514087 186 186 182 255 
-0.197076360664 0.0273731294894 -6.50794985212 170 173 173 255 
-0.194990260012 0.0273731294894 -6.50836948001 170 173 173 255 
-0.192904159361 0.0273731294894 -6.50881402455 170 173 173 255 
-0.19081805871 0.0273731294894 -6.50928348573 175 178 177 255 
-0.188731958058 0.0273731294894 -6.50977786355 175 178 177 255 
-0.186645857407 0.0273731294894 -6.51029715802 184 186 184 255 
-0.184559756756 0.0273731294894 -6.51084136913 193 193 190 255 
-0.182473656104 0.0273731294894 -6.51141049688 214 212 203 255 
-0.180387555453 0.0273731294894 -6.51200454128 221 217 207 255 
-0.178301454801 0.0273731294894 -6.51262350232 223 219 207 255 
-0.17621535415 0.0273731294894 -6.51326738 223 219 207 255 
-0.174129253499 0.0273731294894 -6.51393617433 224 220 208 255 
-0.172043152847 0.0273731294894 -6.5146298853 224 220 208 255 
-0.169957052196 0.0273731294894 -6.51534851291 224 220 208 255 
-0.167870951545 0.0273731294894 -6.51609205717 224 220 208 255 
-0.165784850893 0.0273731294894 -6.51686051807 224 220 208 255 
-0.163698750242 0.0273731294894 -6.51765389561 199 195 186 255 
-0.16161264959 0.0273731294894 -6.5184721898 188 185 176 255 
-0.159526548939 0.0273731294894 -6.51931540063 188 185 176 255 
-0.157440448288 0.0273731294894 -6.5201835281 188 185 176 255 
-0.155354347636 0.0273731294894 -6.52107657222 188 185 176 255 
-0.153268246985 0.0273731294894 -6.52199453298 188 185 176 255 
-0.151182146334 0.0273731294894 -6.52293741039 211 207 195 255 
-0.149096045682 0.0273731294894 -6.52390520444 207 201 189 255 
-0.147009945031 0.0273731294894 -6.52489791513 207 201 189 255 
-0.144923844379 0.0273731294894 -6.52591554246 207 199 187 255 
-0.142837743728 0.0273731294894 -6.52695808644 206 197 184 255 
-0.140751643077 0.0273731294894 -6.52802554706 204 194 181 255 
-0.138665542425 0.0273731294894 -6.52911792433 201 192 178 255 
-0.136579441774 0.0273731294894 -6.53023521824 201 192 178 255 
-0.134493341123 0.0273731294894 -6.53137742879 201 192 178 255 
-0.132407240471 0.0273731294894 -6.53254455599 150 145 139 255 
-0.13032113982 0.0273731294894 -6.53373659982 140 137 132 255 
-0.128235039168 0.0273731294894 -6.53495356031 140 137 132 255 
-0.126148938517 0.0273731294894 -6.53619543743 145 143 137 255 
-0.124062837866 0.0273731294894 -6.5374622312 145 143 137 255 
-0.121976737214 0.0273731294894 -6.53875394162 145 143 137 255 
-0.119890636563 0.0273731294894 -6.54007056867 145 143 137 255 
-0.117804535912 0.0273731294894 -6.54141211237 145 143 137 255 
-0.11571843526 0.0273731294894 -6.54277857272 152 150 143 255 
-0.113632334609 0.0273731294894 -6.5441699497 152 150 143 255 
-0.111546233957 0.0273731294894 -6.54558624333 152 150 143 255 
-0.109460133306 0.0273731294894 -6.54702745361 152 150 143 255 
-0.107374032655 0.0273731294894 -6.54849358052 152 150 143 255 
-0.105287932003 0.0273731294894 -6.54998462408 152 150 143 255 
-0.103201831352 0.0273731294894 -6.55150058429 152 150 143 255 
-0.101115730701 0.0273731294894 -6.55304146114 179 168 153 255 
-0.0990296300491 0.0273731294894 -6.55460725463 196 181 160 255 
-0.0969435293977 0.0273731294894 -6.55619796476 196 181 160 255 
-0.0948574287464 0.0273731294894 -6.55781359154 196 177 153 255 
-0.092771328095 0.0273731294894 -6.55945413496 196 177 153 255 
-0.0906852274436 0.0273731294894 -6.56111959502 196 177 153 255 
-0.0885991267922 0.0273731294894 -6.56280997173 196 177 153 255 
-0.0865130261409 0.0273731294894 -6.56452526508 196 177 153 255 
-0.0844269254895 0.0273731294894 -6.56626547508 196 177 153 255 
-0.0823408248381 0.0273731294894 -6.56803060172 196 177 153 255 
-0.0802547241867 0.0273731294894 -6.569820645 196 177 153 255 
-0.0781686235354 0.0273731294894 -6.57163560493 180 161 140 255 
-0.076082522884 0.0273731294894 -6.57347548149 180 161 140 255 
-0.0739964222326 0.0273731294894 -6.57534027471 166 148 129 255 
-0.0719103215812 0.0273731294894 -6.57722998456 158 142 125 255 
-0.0698242209299 0.0273731294894 -6.57914461106 158 142 125 255 
-0.0677381202785 0.0273731294894 -6.58108415421 158 142 125 255 
-0.0656520196271 0.0273731294894 -6.58304861399 192 180 156 255 
-0.0635659189757 0.0273731294894 -6.58503799042 192 180 156 255 
-0.0614798183244 0.0273731294894 -6.58705228349 230 213 179 255 
-0.059393717673 0.0273731294894 -6.58909149321 201 182 155 255 
-0.0573076170216 0.0273731294894 -6.59115561957 183 165 144 255 
-0.0552215163702 0.0273731294894 -6.59324466257 177 162 147 255 
-0.0531354157188 0.0273731294894 -6.59535862222 177 162 147 255 
-0.0510493150675 0.0273731294894 -6.59749749851 177 162 147 255 
-0.0489632144161 0.0273731294894 -6.59966129144 177 162 147 255 
-0.0468771137647 0.0273731294894 -6.60185000102 177 162 147 255 
-0.0447910131133 0.0273731294894 -6.60406362724 177 162 147 255 
-0.042704912462 0.0273731294894 -6.60630217011 177 162 147 255 
-0.0406188118106 0.0273731294894 -6.60856562961 177 162 147 255 
-0.0385327111592 0.0273731294894 -6.61085400577 162 141 123 255 
-0.0364466105078 0.0273731294894 -6.61316729856 166 147 125 255 
-0.0343605098565 0.0273731294894 -6.615505508 168 142 105 255 
-0.0322744092051 0.0273731294894 -6.61786863408 164 135 95 255 
-0.0301883085537 0.0273731294894 -6.6202566768 152 124 86 255 
-0.0281022079023 0.0273731294894 -6.62266963617 187 160 117 255 
-0.026016107251 0.0273731294894 -6.62510751218 187 160 117 255 
-0.0239300065996 0.0273731294894 -6.62757030484 187 160 117 255 
-0.0218439059482 0.0273731294894 -6.63005801414 187 160 117 255 
-0.0197578052968 0.0273731294894 -6.63257064008 187 160 117 255 
-0.0176717046454 0.0273731294894 -6.63510818267 216 191 145 255 
-0.0155856039941 0.0273731294894 -6.63767064189 216 191 145 255 
-0.0134995033427 0.0273731294894 -6.64025801777 216 191 145 255 
-0.0114134026913 0.0273731294894 -6.64287031028 216 191 145 255 
-0.00932730203994 0.0273731294894 -6.64550751944 229 205 160 255 
-0.00724120138857 0.0273731294894 -6.64816964524 229 205 160 255 
-0.00515510073719 0.0273731294894 -6.65085668769 204 179 133 255 
-0.00306900008582 0.0273731294894 -6.65356864678 182 155 112 255 
-0.313897997141 0.03087041132 -6.5240417916 146 150 155 255 
-0.31181189649 0.03087041132 -6.52306664206 146 150 155 255 
-0.309725795838 0.03087041132 -6.52211640916 146 150 155 255 
-0.307639695187 0.03087041132 -6.52119109291 146 150 155 255 
-0.305553594535 0.03087041132 -6.52029069331 146 150 155 255 
-0.303467493884 0.03087041132 -6.51941521034 146 150 155 255 
-0.301381393233 0.03087041132 -6.51856464402 146 150 155 255 
-0.299295292581 0.03087041132 -6.51773899434 146 150 155 255 
-0.29720919193 0.03087041132 -6.51693826131 146 150 155 255 
-0.295123091278 0.03087041132 -6.51616244492 146 150 155 255 
-0.293036990627 0.03087041132 -6.51541154517 146 150 155 255 
-0.290950889976 0.03087041132 -6.51468556207 146 150 155 255 
-0.288864789324 0.03087041132 -6.51398449561 146 150 155 255 
-0.286778688673 0.03087041132 -6.5133083458 146 150 155 255 
-0.284692588022 0.03087041132 -6.51265711262 146 150 155 255 
-0.28260648737 0.03087041132 -6.51203079609 146 150 155 255 
-0.280520386719 0.03087041132 -6.51142939621 146 150 155 255 
-0.278434286067 0.03087041132 -6.51085291296 146 150 155 255 
-0.276348185416 0.03087041132 -6.51030134637 146 150 155 255 
-0.274262084765 0.03087041132 -6.50977469641 146 150 155 255 
-0.272175984113 0.03087041132 -6.5092729631 146 150 155 255 
-0.270089883462 0.03087041132 -6.50879614643 146 150 155 255 
-0.268003782811 0.03087041132 -6.5083442464 146 150 155 255 
-0.265917682159 0.03087041132 -6.50791726302 146 150 155 255 
-0.263831581508 0.03087041132 -6.50751519628 146 150 155 255 
-0.261745480856 0.03087041132 -6.50713804619 146 150 155 255 
-0.259659380205 0.03087041132 -6.50678581274 154 153 153 255 
-0.257573279554 0.03087041132 -6.50645849593 168 165 162 255 
-0.255487178902 0.03087041132 -6.50615609577 164 164 164 255 
-0.253401078251 0.03087041132 -6.50587861224 164 164 164 255 
-0.2513149776 0.03087041132 -6.50562604537 164 164 164 255 
-0.249228876948 0.03087041132 -6.50539839513 164 164 164 255 
-0.247142776297 0.03087041132 -6.50519566154 172 168 164 255 
-0.245056675645 0.03087041132 -6.5050178446 172 168 164 255 
-0.242970574994 0.03087041132 -6.50486494429 179 179 177 255 
-0.240884474343 0.03087041132 -6.50473696063 186 187 184 255 
-0.238798373691 0.03087041132 -6.50463389361 186 187 184 255 
-0.23671227304 0.03087041132 -6.50455574324 186 187 184 255 
-0.234626172389 0.03087041132 -6.50450250951 193 191 185 255 
-0.232540071737 0.03087041132 -6.50447419242 193 191 185 255 
-0.230453971086 0.03087041132 -6.50447079198 193 191 185 255 
-0.228367870434 0.03087041132 -6.50449230818 193 191 185 255 
-0.226281769783 0.03087041132 -6.50453874103 193 191 185 255 
-0.224195669132 0.03087041132 -6.50461009051 193 191 185 255 
-0.22210956848 0.03087041132 -6.50470635664 193 191 185 255 
-0.220023467829 0.03087041132 -6.50482753942 193 191 185 255 
-0.217937367178 0.03087041132 -6.50497363884 193 191 185 255 
-0.215851266526 0.03087041132 -6.5051446549 193 191 185 255 
-0.213765165875 0.03087041132 -6.5053405876 193 191 185 255 
-0.211679065223 0.03087041132 -6.50556143695 193 191 185 255 
-0.209592964572 0.03087041132 -6.50580720294 193 191 185 255 
-0.207506863921 0.03087041132 -6.50607788558 201 198 190 255 
-0.205420763269 0.03087041132 -6.50637348485 195 194 189 255 
-0.203334662618 0.03087041132 -6.50669400078 186 186 182 255 
-0.201248561967 0.03087041132 -6.50703943334 186 186 182 255 
-0.199162461315 0.03087041132 -6.50740978255 186 186 182 255 
-0.197076360664 0.03087041132 -6.5078050484 186 186 182 255 
-0.194990260012 0.03087041132 -6.5082252309 170 173 173 255 
-0.192904159361 0.03087041132 -6.50867033004 170 173 173 255 
-0.19081805871 0.03087041132 -6.50914034582 170 173 173 255 
-0.188731958058 0.03087041132 -6.50963527824 170 173 173 255 
-0.186645857407 0.03087041132 -6.51015512731 178 180 179 255 
-0.184559756756 0.03087041132 -6.51069989303 191 192 188 255 
-0.182473656104 0.03087041132 -6.51126957538 203 202 196 255 
-0.180387555453 0.03087041132 -6.51186417438 222 218 206 255 
-0.178301454801 0.03087041132 -6.51248369003 222 218 206 255 
-0.17621535415 0.03087041132 -6.51312812231 222 218 206 255 
-0.174129253499 0.03087041132 -6.51379747124 224 219 207 255 
-0.172043152847 0.03087041132 -6.51449173682 224 219 207 255 
-0.169957052196 0.03087041132 -6.51521091903 224 219 207 255 
-0.167870951545 0.03087041132 -6.51595501789 224 219 207 255 
-0.165784850893 0.03087041132 -6.5167240334 224 219 207 255 
-0.163698750242 0.03087041132 -6.51751796554 173 170 162 255 
-0.16161264959 0.03087041132 -6.51833681434 148 146 141 255 
-0.159526548939 0.03087041132 -6.51918057977 148 146 141 255 
-0.157440448288 0.03087041132 -6.52004926185 168 166 159 255 
-0.155354347636 0.03087041132 -6.52094286057 168 166 159 255 
-0.153268246985 0.03087041132 -6.52186137593 168 166 159 255 
-0.151182146334 0.03087041132 -6.52280480794 185 181 172 255 
-0.149096045682 0.03087041132 -6.52377315659 185 181 172 255 
-0.147009945031 0.03087041132 -6.52476642189 208 201 189 255 
-0.144923844379 0.03087041132 -6.52578460383 205 195 182 255 
-0.142837743728 0.03087041132 -6.52682770241 201 191 178 255 
-0.140751643077 0.03087041132 -6.52789571763 203 194 180 255 
-0.138665542425 0.03087041132 -6.5289886495 203 194 180 255 
-0.136579441774 0.03087041132 -6.53010649801 203 194 180 255 
-0.134493341123 0.03087041132 -6.53124926317 203 194 180 255 
-0.132407240471 0.03087041132 -6.53241694497 147 141 136 255 
-0.13032113982 0.03087041132 -6.53360954341 136 132 128 255 
-0.128235039168 0.03087041132 -6.5348270585 136 132 128 255 
-0.126148938517 0.03087041132 -6.53606949023 136 132 128 255 
-0.124062837866 0.03087041132 -6.5373368386 136 132 128 255 
-0.121976737214 0.03087041132 -6.53862910362 144 141 135 255 
-0.119890636563 0.03087041132 -6.53994628528 144 141 135 255 
-0.117804535912 0.03087041132 -6.54128838358 147 145 139 255 
-0.11571843526 0.03087041132 -6.54265539853 147 145 139 255 
-0.113632334609 0.03087041132 -6.54404733012 147 145 139 255 
-0.111546233957 0.03087041132 -6.54546417835 147 145 139 255 
-0.109460133306 0.03087041132 -6.54690594323 147 145 139 255 
-0.107374032655 0.03087041132 -6.54837262475 147 145 139 255 
-0.105287932003 0.03087041132 -6.54986422291 147 145 139 255 
-0.103201831352 0.03087041132 -6.55138073772 147 145 139 255 
-0.101115730701 0.03087041132 -6.55292216917 165 159 148 255 
-0.0990296300491 0.03087041132 -6.55448851726 195 180 158 255 
-0.0969435293977 0.03087041132 -6.556079782 195 180 158 255 
-0.0948574287464 0.03087041132 -6.55769596338 196 177 153 255 
-0.092771328095 0.03087041132 -6.55933706141 196 177 153 255 
-0.0906852274436 0.03087041132 -6.56100307608 196 177 153 255 
-0.0885991267922 0.03087041132 -6.56269400739 196 177 153 255 
-0.0865130261409 0.03087041132 -6.56440985534 196 177 153 255 
-0.0844269254895 0.03087041132 -6.56615061994 196 177 153 255 
-0.0823408248381 0.03087041132 -6.56791630118 196 177 153 255 
-0.0802547241867 0.03087041132 -6.56970689907 196 177 153 255 
-0.0781686235354 0.03087041132 -6.5715224136 196 177 153 255 
-0.076082522884 0.03087041132 -6.57336284477 180 161 140 255 
-0.0739964222326 0.03087041132 -6.57522819258 166 148 129 255 
-0.0719103215812 0.03087041132 -6.57711845704 149 132 116 255 
-0.0698242209299 0.03087041132 -6.57903363815 149 132 116 255 
-0.0677381202785 0.03087041132 -6.58097373589 167 151 131 255 
-0.0656520196271 0.03087041132 -6.58293875028 191 175 149 255 
-0.0635659189757 0.03087041132 -6.58492868131 233 214 177 255 
-0.0614798183244 0.03087041132 -6.58694352899 236 214 178 255 
-0.059393717673 0.03087041132 -6.58898329331 221 198 166 255 
-0.0573076170216 0.03087041132 -6.59104797427 201 182 155 255 
-0.0552215163702 0.03087041132 -6.59313757188 202 182 154 255 
-0.0531354157188 0.03087041132 -6.59525208613 182 164 144 255 
-0.0510493150675 0.03087041132 -6.59739151702 182 164 144 255 
-0.0489632144161 0.03087041132 -6.59955586456 182 164 144 255 
-0.0468771137647 0.03087041132 -6.60174512874 167 148 130 255 
-0.0447910131133 0.03087041132 -6.60395930957 167 148 130 255 
-0.042704912462 0.03087041132 -6.60619840703 167 148 130 255 
-0.0406188118106 0.03087041132 -6.60846242114 162 141 123 255 
-0.0385327111592 0.03087041132 -6.6107513519 152 129 104 255 
-0.0364466105078 0.03087041132 -6.6130651993 164 135 95 255 
-0.0343605098565 0.03087041132 -6.61540396334 164 135 95 255 
-0.0322744092051 0.03087041132 -6.61776764402 164 135 95 255 
-0.0301883085537 0.03087041132 -6.62015624135 152 124 86 255 
-0.0281022079023 0.03087041132 -6.62256975532 187 160 117 255 
-0.026016107251 0.03087041132 -6.62500818594 187 160 117 255 
-0.0239300065996 0.03087041132 -6.6274715332 187 160 117 255 
-0.0218439059482 0.03087041132 -6.6299597971 187 160 117 255 
-0.0197578052968 0.03087041132 -6.63247297764 187 160 117 255 
-0.0176717046454 0.03087041132 -6.63501107483 216 191 145 255 
-0.0155856039941 0.03087041132 -6.63757408866 216 191 145 255 
-0.0134995033427 0.03087041132 -6.64016201914 216 191 145 255 
-0.0114134026913 0.03087041132 -6.64277486626 229 205 160 255 
-0.00932730203994 0.03087041132 -6.64541263002 229 205 160 255 
-0.00724120138857 0.03087041132 -6.64807531043 219 195 148 255 
-0.00515510073719 0.03087041132 -6.65076290748 182 155 112 255 
-0.00306900008582 0.03087041132 -6.65347542117 187 160 120 255 
-0.313897997141 0.0343676931506 -6.52386553683 146 150 155 255 
-0.31181189649 0.0343676931506 -6.5228909419 146 150 155 255 
-0.309725795838 0.0343676931506 -6.52194126361 146 150 155 255 
-0.307639695187 0.0343676931506 -6.52101650196 146 150 155 255 
-0.305553594535 0.0343676931506 -6.52011665695 146 150 155 255 
-0.303467493884 0.0343676931506 -6.51924172859 146 150 155 255 
-0.301381393233 0.0343676931506 -6.51839171688 146 150 155 255 
-0.299295292581 0.0343676931506 -6.5175666218 146 150 155 255 
-0.29720919193 0.0343676931506 -6.51676644337 146 150 155 255 
-0.295123091278 0.0343676931506 -6.51599118159 146 150 155 255 
-0.293036990627 0.0343676931506 -6.51524083644 146 150 155 255 
-0.290950889976 0.0343676931506 -6.51451540794 146 150 155 255 
-0.288864789324 0.0343676931506 -6.51381489609 146 150 155 255 
-0.286778688673 0.0343676931506 -6.51313930087 146 150 155 255 
-0.284692588022 0.0343676931506 -6.5124886223 146 150 155 255 
-0.28260648737 0.0343676931506 -6.51186286038 146 150 155 255 
-0.280520386719 0.0343676931506 -6.5112620151 146 150 155 255 
-0.278434286067 0.0343676931506 -6.51068608646 146 150 155 255 
-0.276348185416 0.0343676931506 -6.51013507446 146 150 155 255 
-0.274262084765 0.0343676931506 -6.50960897911 146 150 155 255 
-0.272175984113 0.0343676931506 -6.5091078004 146 150 155 255 
-0.270089883462 0.0343676931506 -6.50863153834 146 150 155 255 
-0.268003782811 0.0343676931506 -6.50818019291 146 150 155 255 
-0.265917682159 0.0343676931506 -6.50775376413 146 150 155 255 
-0.263831581508 0.0343676931506 -6.507352252 141 142 145 255 
-0.261745480856 0.0343676931506 -6.50697565651 141 142 145 255 
-0.259659380205 0.0343676931506 -6.50662397766 141 140 139 255 
-0.257573279554 0.0343676931506 -6.50629721546 155 152 148 255 
-0.255487178902 0.0343676931506 -6.50599536989 155 152 148 255 
-0.253401078251 0.0343676931506 -6.50571844098 155 152 148 255 
-0.2513149776 0.0343676931506 -6.5054664287 155 152 148 255 
-0.249228876948 0.0343676931506 -6.50523933307 155 152 148 255 
-0.247142776297 0.0343676931506 -6.50503715408 157 155 152 255 
-0.245056675645 0.0343676931506 -6.50485989174 157 155 152 255 
-0.242970574994 0.0343676931506 -6.50470754604 172 170 165 255 
-0.240884474343 0.0343676931506 -6.50458011698 172 170 165 255 
-0.238798373691 0.0343676931506 -6.50447760457 172 170 165 255 
-0.23671227304 0.0343676931506 -6.5044000088 181 179 174 255 
-0.234626172389 0.0343676931506 -6.50434732967 181 179 174 255 
-0.232540071737 0.0343676931506 -6.50431956719 181 179 174 255 
-0.230453971086 0.0343676931506 -6.50431672135 181 179 174 255 
-0.228367870434 0.0343676931506 -6.50433879215 181 179 174 255 
-0.226281769783 0.0343676931506 -6.5043857796 181 179 174 255 
-0.224195669132 0.0343676931506 -6.50445768369 181 179 174 255 
-0.22210956848 0.0343676931506 -6.50455450443 181 179 174 255 
-0.220023467829 0.0343676931506 -6.5046762418 181 179 174 255 
-0.217937367178 0.0343676931506 -6.50482289582 181 179 174 255 
-0.215851266526 0.0343676931506 -6.50499446649 181 179 174 255 
-0.213765165875 0.0343676931506 -6.5051909538 181 179 174 255 
-0.211679065223 0.0343676931506 -6.50541235775 181 179 174 255 
-0.209592964572 0.0343676931506 -6.50565867834 181 179 174 255 
-0.207506863921 0.0343676931506 -6.50592991558 189 186 179 255 
-0.205420763269 0.0343676931506 -6.50622606946 189 186 179 255 
-0.203334662618 0.0343676931506 -6.50654713999 189 187 181 255 
-0.201248561967 0.0343676931506 -6.50689312716 185 185 182 255 
-0.199162461315 0.0343676931506 -6.50726403097 185 185 182 255 
-0.197076360664 0.0343676931506 -6.50765985142 185 185 182 255 
-0.194990260012 0.0343676931506 -6.50808058852 166 168 169 255 
-0.192904159361 0.0343676931506 -6.50852624226 168 170 171 255 
-0.19081805871 0.0343676931506 -6.50899681265 172 175 175 255 
-0.188731958058 0.0343676931506 -6.50949229968 172 175 175 255 
-0.186645857407 0.0343676931506 -6.51001270335 181 183 182 255 
-0.184559756756 0.0343676931506 -6.51055802367 181 183 182 255 
-0.182473656104 0.0343676931506 -6.51112826063 210 208 199 255 
-0.180387555453 0.0343676931506 -6.51172341423 210 208 199 255 
-0.178301454801 0.0343676931506 -6.51234348448 221 216 203 255 
-0.17621535415 0.0343676931506 -6.51298847137 221 216 203 255 
-0.174129253499 0.0343676931506 -6.5136583749 221 216 203 255 
-0.172043152847 0.0343676931506 -6.51435319508 221 216 203 255 
-0.169957052196 0.0343676931506 -6.5150729319 221 216 203 255 
-0.167870951545 0.0343676931506 -6.51581758536 221 216 203 255 
-0.165784850893 0.0343676931506 -6.51658715547 223 218 204 255 
-0.163698750242 0.0343676931506 -6.51738164222 154 151 145 255 
-0.16161264959 0.0343676931506 -6.51820104561 148 146 141 255 
-0.159526548939 0.0343676931506 -6.51904536565 148 146 141 255 
-0.157440448288 0.0343676931506 -6.51991460233 148 146 141 255 
-0.155354347636 0.0343676931506 -6.52080875566 148 146 141 255 
-0.153268246985 0.0343676931506 -6.52172782563 148 146 141 255 
-0.151182146334 0.0343676931506 -6.52267181224 148 146 141 255 
-0.149096045682 0.0343676931506 -6.52364071549 171 167 160 255 
-0.147009945031 0.0343676931506 -6.52463453539 201 193 180 255 
-0.144923844379 0.0343676931506 -6.52565327193 206 197 184 255 
-0.142837743728 0.0343676931506 -6.52669692512 203 193 178 255 
-0.140751643077 0.0343676931506 -6.52776549495 203 193 179 255 
-0.138665542425 0.0343676931506 -6.52885898142 203 193 179 255 
-0.136579441774 0.0343676931506 -6.52997738453 203 193 179 255 
-0.134493341123 0.0343676931506 -6.53112070429 197 187 174 255 
-0.132407240471 0.0343676931506 -6.53228894069 145 139 133 255 
-0.13032113982 0.0343676931506 -6.53348209374 132 127 124 255 
-0.128235039168 0.0343676931506 -6.53470016343 132 127 124 255 
-0.126148938517 0.0343676931506 -6.53594314976 132 127 124 255 
-0.124062837866 0.0343676931506 -6.53721105274 132 127 124 255 
-0.121976737214 0.0343676931506 -6.53850387236 139 135 130 255 
-0.119890636563 0.0343676931506 -6.53982160862 138 135 130 255 
-0.117804535912 0.0343676931506 -6.54116426153 138 135 130 255 
-0.11571843526 0.0343676931506 -6.54253183108 138 135 130 255 
-0.113632334609 0.0343676931506 -6.54392431727 139 136 132 255 
-0.111546233957 0.0343676931506 -6.54534172011 139 136 132 255 
-0.109460133306 0.0343676931506 -6.54678403959 139 136 132 255 
-0.107374032655 0.0343676931506 -6.54825127571 139 136 132 255 
-0.105287932003 0.0343676931506 -6.54974342848 146 144 138 255 
-0.103201831352 0.0343676931506 -6.55126049789 146 144 138 255 
-0.101115730701 0.0343676931506 -6.55280248394 181 170 153 255 
-0.0990296300491 0.0343676931506 -6.55436938664 195 180 158 255 
-0.0969435293977 0.0343676931506 -6.55596120598 196 177 153 255 
-0.0948574287464 0.0343676931506 -6.55757794197 196 177 153 255 
-0.092771328095 0.0343676931506 -6.5592195946 196 177 153 255 
-0.0906852274436 0.0343676931506 -6.56088616387 196 177 153 255 
-0.0885991267922 0.0343676931506 -6.56257764978 196 177 153 255 
-0.0865130261409 0.0343676931506 -6.56429405234 196 177 153 255 
-0.0844269254895 0.0343676931506 -6.56603537154 196 177 153 255 
-0.0823408248381 0.0343676931506 -6.56780160739 196 177 153 255 
-0.0802547241867 0.0343676931506 -6.56959275988 196 177 153 255 
-0.0781686235354 0.0343676931506 -6.57140882901 180 160 136 255 
-0.076082522884 0.0343676931506 -6.57324981478 180 160 136 255 
-0.0739964222326 0.0343676931506 -6.5751157172 136 114 97 255 
-0.0719103215812 0.0343676931506 -6.57700653627 137 118 100 255 
-0.0698242209299 0.0343676931506 -6.57892227197 135 116 99 255 
-0.0677381202785 0.0343676931506 -6.58086292432 157 139 120 255 
-0.0656520196271 0.0343676931506 -6.58282849331 178 162 137 255 
-0.0635659189757 0.0343676931506 -6.58481897895 227 207 171 255 
-0.0614798183244 0.0343676931506 -6.58683438123 235 213 177 255 
-0.059393717673 0.0343676931506 -6.58887470015 235 213 177 255 
-0.0573076170216 0.0343676931506 -6.59093993572 221 198 166 255 
-0.0552215163702 0.0343676931506 -6.59303008793 208 182 151 255 
-0.0531354157188 0.0343676931506 -6.59514515678 187 165 141 255 
-0.0510493150675 0.0343676931506 -6.59728514228 187 165 141 255 
-0.0489632144161 0.0343676931506 -6.59945004442 187 165 141 255 
-0.0468771137647 0.0343676931506 -6.6016398632 152 128 106 255 
-0.0447910131133 0.0343676931506 -6.60385459863 152 128 106 255 
-0.042704912462 0.0343676931506 -6.6060942507 167 143 120 255 
-0.0406188118106 0.0343676931506 -6.60835881942 139 112 84 255 
